# .PCD v0.7 - Point Cloud Data file format
VERSION 0.7
FIELDS x y z intensity ring
SIZE 4 4 4 4 2
TYPE F F F F U
COUNT 1 1 1 1 1
WIDTH 59
HEIGHT 1
VIEWPOINT 0 0 0 1 0 0 0
POINTS 59
DATA ascii
1.6483788 -1.7553451 -0.38138729 1 3
1.637159 -1.7550236 -0.38013577 6 3
1.635358 -1.7647899 -0.3810744 16 3
1.6395775 -1.7824028 -0.38357735 24 3
1.6226877 -1.7764469 -0.3810744 28 3
1.6154604 -1.7803552 -0.3807615 39 3
1.6105583 -1.787451 -0.3810744 23 3
1.6095777 -1.7989506 -0.38232586 13 3
1.6006643 -1.8016045 -0.38170013 8 3
1.5982866 -1.8116249 -0.38263875 2 3
1.6744444 -1.6832347 -0.63617724 4 0
1.6574043 -1.6783639 -0.63203615 6 0
1.64342 -1.675863 -0.62893027 8 0
1.6429514 -1.6871257 -0.63100088 9 0
1.6360043 -1.6911763 -0.63048321 10 0
1.6247379 -1.6913038 -0.62841266 10 0
1.7152698 -1.786793 -0.57182562 1 1
1.6028225 -1.6801909 -0.62220097 15 0
1.6552372 -1.736349 -0.55382955 5 1
1.5916337 -1.6801659 -0.62013048 16 0
1.6438075 -1.7364556 -0.55202997 9 1
1.5950247 -1.6955612 -0.62375391 18 0
1.6257232 -1.729404 -0.54798079 11 1
1.5827982 -1.6937836 -0.62116575 20 0
1.6146593 -1.7290884 -0.5461812 15 1
1.5824302 -1.7046866 -0.6232363 21 0
1.6102419 -1.7358619 -0.5466311 18 1
1.5617713 -1.6948478 -0.61754227 22 0
1.5988915 -1.735739 -0.54483151 27 1
1.6673638 -1.8113401 -0.478549 1 2
1.5506289 -1.6945881 -0.61547172 25 0
1.593834 -1.7430254 -0.54528135 35 1
1.6345392 -1.7881677 -0.47091663 1 2
1.549901 -1.7057096 -0.61754227 25 0
1.5788733 -1.7382039 -0.54213208 46 1
1.6045359 -1.7676959 -0.46404752 1 2
1.5429417 -1.7094057 -0.6170246 26 0
1.5688806 -1.7393634 -0.54078233 86 1
1.582889 -1.7555101 -0.4594681 1 2
1.5434123 -1.7219739 -0.61961281 25 0
1.5640998 -1.7462808 -0.54123229 48 1
1.6081818 -1.7961283 -0.46862692 1 2
1.527117 -1.7158065 -0.61547172 25 0
1.5696503 -1.764835 -0.54528135 23 1
1.5287944 -1.729812 -0.61857754 22 0
1.5725104 -1.7805281 -0.54843074 18 1
1.52657 -1.739494 -0.62013048 21 0
1.5611459 -1.7801458 -0.5466311 13 1
1.5217576 -1.7462685 -0.62064809 19 0
1.5641943 -1.7955985 -0.54978037 10 1
1.5235447 -1.760069 -0.62375391 17 0
1.5566421 -1.799574 -0.54933053 8 1
1.5173916 -1.7653766 -0.62375391 13 0
1.569716 -1.8268971 -0.55607903 5 1
1.5074575 -1.7662541 -0.62220097 11 0
1.5072175 -1.7791374 -0.62478918 8 0
1.509703 -1.7947364 -0.62841266 7 0
1.5071443 -1.8044432 -0.62996554 4 0
1.6789424 -1.6760148 -0.63565958 3 0
