# .PCD v0.7 - Point Cloud Data file format
VERSION 0.7
FIELDS x y z intensity ring
SIZE 4 4 4 4 2
TYPE F F F F U
COUNT 1 1 1 1 1
WIDTH 67
HEIGHT 1
VIEWPOINT 0 0 0 1 0 0 0
POINTS 67
DATA ascii
1.662662 -1.6673113 -0.3729398 8 3
1.6557336 -1.6714126 -0.37262696 21 3
1.6623571 -1.6898557 -0.37544277 26 3
1.6498408 -1.6882951 -0.37387842 32 3
1.6315566 -1.6812855 -0.37106261 37 3
1.6287141 -1.689531 -0.37168834 18 3
1.6241726 -1.6966327 -0.3720012 10 3
1.6267049 -1.7105982 -0.37387842 7 3
1.6397116 -1.7363728 -0.37825859 1 3
1.6502755 -1.6433771 -0.36887249 1 3
1.6110659 -1.6127539 -0.61081296 19 0
1.6342194 -1.6370741 -0.53403383 18 1
1.6040659 -1.6169962 -0.6102953 22 0
1.6274097 -1.6411006 -0.53358394 23 1
1.5905592 -1.6140506 -0.60718954 24 0
1.6257731 -1.6509368 -0.53493363 27 1
1.6596279 -1.6859044 -0.45984969 1 2
1.5781596 -1.6126893 -0.60460132 24 0
1.6216524 -1.6577121 -0.53538352 35 1
1.6537331 -1.6916871 -0.45984969 1 2
1.5754962 -1.620684 -0.6056366 24 0
1.6036351 -1.6507827 -0.53133446 46 1
1.6207595 -1.6689934 -0.45221734 1 2
1.5698292 -1.6261737 -0.6056366 24 0
1.5995052 -1.6574937 -0.5317843 54 1
1.6040214 -1.663335 -0.44916439 1 2
1.5751249 -1.6425251 -0.60977769 24 0
1.5869683 -1.6560317 -0.52953482 31 1
1.5613884 -1.6396192 -0.60667187 24 0
1.5975916 -1.6782228 -0.53493363 21 1
1.5532875 -1.6419814 -0.6056366 24 0
1.5944012 -1.6866217 -0.53583348 16 1
1.5515147 -1.6516175 -0.60718954 22 0
1.5834634 -1.6862172 -0.53403383 12 1
1.5513011 -1.6624029 -0.60926002 22 0
1.5775677 -1.6917342 -0.53403383 9 1
1.5494281 -1.6720589 -0.61081296 20 0
1.5822452 -1.7086695 -0.53763306 7 1
1.5383495 -1.6717708 -0.60874242 19 0
1.6026524 -1.7428713 -0.5466311 3 1
1.536414 -1.681409 -0.6102953 19 0
1.5373217 -1.6936468 -0.61288351 16 0
1.5378677 -1.7061775 -0.61547172 13 0
1.5409214 -1.7216117 -0.61909521 10 0
1.5387524 -1.7313119 -0.62064809 8 0
1.5317245 -1.7349569 -0.62013048 7 0
1.5485821 -1.7664411 -0.62944794 3 0
1.5401782 -1.7686529 -0.62841266 3 0
1.5431515 -1.7839781 -0.63203615 3 0
1.5359882 -1.8003191 -0.6341067 2 0
1.7456173 -1.5978826 -0.6341067 2 0
1.752813 -1.6157508 -0.63876545 3 0
1.7386671 -1.6139734 -0.63565958 3 0
1.7304823 -1.617092 -0.6346243 3 0
1.7121652 -1.6112075 -0.62996554 4 0
1.6899831 -1.6009336 -0.62375391 8 0
1.6690085 -1.5921547 -0.61805987 10 0
1.6536884 -1.5886027 -0.61443645 12 0
1.6511887 -1.5967636 -0.61547172 15 0
1.641732 -1.598188 -0.61391884 16 0
1.7127528 -1.6684898 -0.55202997 1 1
1.6251067 -1.5930899 -0.60977769 16 0
1.6724261 -1.6400493 -0.54078233 6 1
1.6184399 -1.5971133 -0.60926002 17 0
1.6625313 -1.6417694 -0.53943264 10 1
1.6153156 -1.6057582 -0.6102953 18 0
1.6415904 -1.6324477 -0.53448373 14 1
