# .PCD v0.7 - Point Cloud Data file format
VERSION 0.7
FIELDS x y z intensity ring
SIZE 4 4 4 4 2
TYPE F F F F U
COUNT 1 1 1 1 1
WIDTH 53
HEIGHT 1
VIEWPOINT 0 0 0 1 0 0 0
POINTS 53
DATA ascii
1.51618 -1.8986062 -0.38482881 1 3
1.4944872 -1.8855734 -0.3810744 1 3
1.4903393 -1.8938832 -0.38170013 8 3
1.4791853 -1.8925896 -0.38044867 21 3
1.4725698 -1.8977414 -0.38044867 24 3
1.4704251 -1.9093859 -0.38170013 27 3
1.4553528 -1.9035221 -0.37951005 12 3
1.4471723 -1.90727 -0.37919718 7 3
1.4622381 -1.9404556 -0.38482881 1 3
1.5413113 -1.8864708 -0.65274167 2 0
1.4994221 -1.8483318 -0.63773018 3 0
1.486902 -1.8460318 -0.63514197 8 0
1.4771516 -1.8464271 -0.63358909 11 0
1.5174023 -1.8980978 -0.561028 1 1
1.5369495 -1.9232371 -0.478549 1 2
1.4679717 -1.8488026 -0.63255376 17 0
1.4792678 -1.8636973 -0.54933053 1 1
1.4737699 -1.8581018 -0.46099457 2 2
1.4435692 -1.8311588 -0.62478918 18 0
1.4772508 -1.8752296 -0.55113012 1 1
1.4769919 -1.8755744 -0.46404752 9 2
1.4359781 -1.8346653 -0.62427157 21 0
1.451811 -1.8555616 -0.54393172 1 1
1.470436 -1.8807186 -0.46404752 11 2
1.4275147 -1.8363669 -0.6232363 24 0
1.4453249 -1.860618 -0.54393172 3 1
1.4678036 -1.8902364 -0.46519238 15 2
1.4207746 -1.8415866 -0.6232363 26 0
1.4340608 -1.8594792 -0.54213208 5 1
1.4548736 -1.8878281 -0.46328428 21 2
1.4166869 -1.8496021 -0.62427157 32 0
1.4236827 -1.8600802 -0.54078233 6 1
1.4423101 -1.8850992 -0.46137619 16 2
1.4028839 -1.8455541 -0.62116575 33 0
1.4207182 -1.8696935 -0.54213208 5 1
1.4401401 -1.8966268 -0.46290264 9 2
1.3990839 -1.8532798 -0.62220097 28 0
1.4188776 -1.8808643 -0.54393172 2 1
1.435025 -1.9029598 -0.46328428 5 2
1.4056778 -1.8749117 -0.62789506 22 0
1.4219798 -1.8980358 -0.54753089 1 1
1.4287066 -1.907708 -0.46328428 2 2
1.4017601 -1.8826617 -0.62893027 19 0
1.415678 -1.9027408 -0.54753089 1 1
1.4692379 -1.9754479 -0.478549 1 2
1.4009213 -1.895311 -0.63151848 16 0
1.4182899 -1.9202108 -0.55113012 1 1
1.3908683 -1.8955171 -0.62996554 12 0
1.4092739 -1.922007 -0.55023032 1 1
1.3876555 -1.905045 -0.63151848 10 0
1.3979768 -1.9333594 -0.63928306 8 0
1.3998908 -1.9510273 -0.64342415 4 0
1.4289356 -2.0062549 -0.65998858 2 0
