# .PCD v0.7 - Point Cloud Data file format
VERSION 0.7
FIELDS x y z intensity ring
SIZE 4 4 4 4 2
TYPE F F F F U
COUNT 1 1 1 1 1
WIDTH 62
HEIGHT 1
VIEWPOINT 0 0 0 1 0 0 0
POINTS 62
DATA ascii
1.5235951 -1.8621324 -0.3810744 27 3
1.5071213 -1.8551738 -0.37857145 36 3
1.4931953 -1.8511982 -0.37669426 20 3
1.4941332 -1.8656499 -0.37857145 10 3
1.4863822 -1.8693081 -0.37825859 7 3
1.5300331 -1.9380533 -0.39108619 1 3
1.5469019 -1.8376558 -0.38044867 1 3
1.5214751 -1.8203095 -0.37575564 5 3
1.5252042 -1.8377696 -0.37825859 16 3
1.5300859 -1.8568027 -0.3810744 24 3
1.4597725 -1.7809553 -0.6170246 21 0
1.4817854 -1.8090992 -0.53988254 31 1
1.5086724 -1.842581 -0.46290264 1 2
1.4498885 -1.7815447 -0.61547172 22 0
1.4766911 -1.8157725 -0.5403325 46 1
1.4873701 -1.8295559 -0.45832324 1 2
1.4460894 -1.7896003 -0.61650699 24 0
1.4666711 -1.8163674 -0.53898275 60 1
1.4859071 -1.8408471 -0.45984969 1 2
1.4446695 -1.8006644 -0.61857754 24 0
1.4578838 -1.8184353 -0.53808296 37 1
1.4419862 -1.8102295 -0.62013048 20 0
1.4563819 -1.8296119 -0.53988254 23 1
1.4284681 -1.8061604 -0.6170246 21 0
1.4596531 -1.8469156 -0.54348177 16 1
1.4245409 -1.8141747 -0.61805987 19 0
1.4531975 -1.8519994 -0.54348177 11 1
1.4217629 -1.8237066 -0.61961281 19 0
1.4479216 -1.8585981 -0.54393172 9 1
1.4153883 -1.8286585 -0.61961281 17 0
1.4426171 -1.8651824 -0.54438156 6 1
1.4172363 -1.844311 -0.6232363 16 0
1.4025874 -1.838495 -0.61961281 15 0
1.4008269 -1.8495401 -0.62168342 13 0
1.4089867 -1.9013587 -0.6341067 8 0
1.4046308 -1.9093778 -0.63514197 6 0
1.4059327 -1.9251901 -0.63876545 3 0
1.5408612 -1.9226213 -0.47893062 1 2
1.4800113 -1.9273951 -0.561028 1 1
1.6118073 -1.7825713 -0.64394182 3 0
1.5926689 -1.7738122 -0.63876545 3 0
1.5867777 -1.7790841 -0.63876545 3 0
1.5783073 -1.7814441 -0.63773018 7 0
1.5551821 -1.7683583 -0.63100088 9 0
1.535022 -1.7577698 -0.62530684 11 0
1.5263457 -1.7601984 -0.62427157 12 0
1.5192395 -1.7637864 -0.62375391 12 0
1.5130734 -1.769079 -0.62375391 13 0
1.5383391 -1.7998911 -0.5466311 3 1
1.4956342 -1.7610974 -0.61909521 15 0
1.533308 -1.8067359 -0.54708099 8 1
1.4869869 -1.7633536 -0.61805987 15 0
1.5257362 -1.8105867 -0.5466311 12 1
1.4845433 -1.7729769 -0.61961281 17 0
1.5094024 -1.8039449 -0.54303187 15 1
1.4758753 -1.7751771 -0.61857754 17 0
1.4931337 -1.7972114 -0.53943264 21 1
1.4733595 -1.7847878 -0.62013048 19 0
1.4868511 -1.8024124 -0.53943264 24 1
1.6248347 -1.7837925 -0.64653003 2 0
1.6005492 -1.8594967 -0.56642681 1 1
1.567555 -1.9009202 -0.47893062 1 2
