# .PCD v0.7 - Point Cloud Data file format
VERSION 0.7
FIELDS x y z intensity ring
SIZE 4 4 4 4 2
TYPE F F F F U
COUNT 1 1 1 1 1
WIDTH 51
HEIGHT 1
VIEWPOINT 0 0 0 1 0 0 0
POINTS 51
DATA ascii
1.688018 -1.7912812 -0.38983473 1 3
1.6790557 -1.794278 -0.389209 8 3
1.6727824 -1.800128 -0.389209 19 3
1.6664884 -1.8059562 -0.389209 23 3
1.652167 -1.8030238 -0.38733178 27 3
1.6458631 -1.80878 -0.38733178 34 3
1.6395394 -1.8145139 -0.38733178 20 3
1.6361521 -1.8228812 -0.38795751 10 3
1.6379859 -1.8371433 -0.38983473 7 3
1.6707327 -1.6977773 -0.63824779 6 0
1.6661465 -1.7049807 -0.63876545 7 0
1.6588393 -1.7093998 -0.63824779 8 0
1.6475004 -1.7096157 -0.63617724 8 0
1.7400178 -1.806252 -0.57902408 2 1
1.6351426 -1.7080921 -0.63358909 9 0
1.6811657 -1.7573961 -0.56147784 6 1
1.626508 -1.7109891 -0.63255376 11 0
1.6709944 -1.7590152 -0.56012815 9 1
1.6165475 -1.7124419 -0.63100088 12 0
1.6568209 -1.7563322 -0.55742878 12 1
1.6132023 -1.720893 -0.63203615 15 0
1.6453511 -1.756416 -0.55562913 16 1
1.6111344 -1.7307559 -0.63358909 16 0
1.6405373 -1.7635756 -0.55607903 23 1
1.585413 -1.71509 -0.62582451 19 0
1.634371 -1.7692914 -0.55607903 36 1
1.6715389 -1.8101612 -0.47893062 1 2
1.5807229 -1.722037 -0.62634212 21 0
1.6229162 -1.7692413 -0.55427945 40 1
1.6492878 -1.7986209 -0.47435117 1 2
1.5760037 -1.728972 -0.62685978 24 0
1.6062323 -1.7633703 -0.55068022 60 1
1.6297814 -1.7898508 -0.47053501 1 2
1.5699588 -1.7344627 -0.62685978 23 0
1.594838 -1.7631854 -0.54888058 94 1
1.6340575 -1.8071787 -0.47358796 1 2
1.5693651 -1.7454053 -0.62893027 22 0
1.5967971 -1.7771617 -0.55158001 38 1
1.6464221 -1.8330357 -0.47893062 1 2
1.5674292 -1.7549226 -0.63048321 20 0
1.6051689 -1.7984399 -0.55652899 20 1
1.5609865 -1.7606556 -0.63048321 16 0
1.6014665 -1.8069488 -0.55742878 15 1
1.6626619 -1.8786365 -0.39734361 1 3
1.5561078 -1.7675438 -0.63100088 14 0
1.59612 -1.8142692 -0.55787861 11 1
1.5537428 -1.7773281 -0.63255376 11 0
1.5910594 -1.8212973 -0.55832857 9 1
1.5525949 -1.7885762 -0.6346243 9 0
1.5923541 -1.8356726 -0.561028 7 1
1.6088291 -1.867797 -0.56912625 3 1
