# .PCD v0.7 - Point Cloud Data file format
VERSION 0.7
FIELDS x y z intensity ring
SIZE 4 4 4 4 2
TYPE F F F F U
COUNT 1 1 1 1 1
WIDTH 57
HEIGHT 1
VIEWPOINT 0 0 0 1 0 0 0
POINTS 57
DATA ascii
1.5698785 -1.9186999 -0.39265057 5 3
1.5669079 -1.9287674 -0.39358914 16 3
1.5452833 -1.9157747 -0.38983473 22 3
1.5398217 -1.922699 -0.39014763 24 3
1.5417067 -1.9388853 -0.39233768 21 3
1.5410496 -1.9520074 -0.39390203 10 3
1.5281332 -1.9496013 -0.39233768 5 3
1.5753102 -1.9116836 -0.39233768 1 3
1.5405988 -1.8795652 -0.65118873 20 0
1.5435264 -1.8844782 -0.56237763 10 1
1.5609101 -1.9063803 -0.47893062 1 2
1.5169566 -1.8639544 -0.64394182 21 0
1.5295618 -1.8807834 -0.55967826 14 1
1.5542461 -1.9118173 -0.47893062 1 2
1.5055842 -1.8632278 -0.64187121 24 0
1.5193145 -1.8815625 -0.55832857 19 1
1.5426306 -1.9111203 -0.47740412 1 2
1.5026979 -1.8729924 -0.64342415 25 0
1.5054234 -1.8777319 -0.55562913 24 1
1.5334946 -1.9134295 -0.47664091 3 2
1.5021693 -1.8857815 -0.64601237 28 0
1.504928 -1.8905988 -0.55787861 36 1
1.5219162 -1.9126256 -0.47511441 4 2
1.4955773 -1.8910136 -0.64601237 32 0
1.4934862 -1.8897249 -0.55607903 37 1
1.5176649 -1.9210075 -0.47587767 1 2
1.4782296 -1.8825481 -0.64135361 30 0
1.4977076 -1.9087244 -0.56012815 21 1
1.5206435 -1.9386516 -0.47893062 1 2
1.474025 -1.8907437 -0.64238888 25 0
1.4946287 -1.9185528 -0.56147784 13 1
1.4745109 -1.9050437 -0.64549476 22 0
1.4831535 -1.9175925 -0.55967826 10 1
1.4737375 -1.9178383 -0.64808291 19 0
1.4764507 -1.9227581 -0.55967826 8 1
1.4717208 -1.9291143 -0.65015346 16 0
1.4815446 -1.9433978 -0.56417727 6 1
1.4603126 -1.9280802 -0.64808291 12 0
1.4900405 -1.9687577 -0.57002604 1 1
1.4582175 -1.9393418 -0.65015346 9 0
1.4560615 -1.9506128 -0.65222406 7 0
1.4507353 -1.9569823 -0.65274167 4 0
1.461071 -1.9853735 -0.66050619 3 0
1.4449066 -1.9923973 -0.65947098 3 0
1.4616455 -2.0303535 -0.67034137 2 0
1.6617678 -1.9163686 -0.67965883 1 0
1.6323788 -1.8958067 -0.67034137 2 0
1.6056647 -1.8779997 -0.66205913 2 0
1.5978492 -1.8821206 -0.66154152 3 0
1.5676124 -1.8596222 -0.6517064 4 0
1.6283703 -1.933067 -0.58352309 1 1
1.5611115 -1.865083 -0.6517064 8 0
1.5869359 -1.8966084 -0.57092583 1 1
1.5499779 -1.8643075 -0.64963585 13 0
1.5516636 -1.8676609 -0.56057805 5 1
1.5397713 -1.8652374 -0.64808291 16 0
1.5426546 -1.8700594 -0.55967826 8 1
