# .PCD v0.7 - Point Cloud Data file format
VERSION 0.7
FIELDS x y z intensity ring
SIZE 4 4 4 4 2
TYPE F F F F U
COUNT 1 1 1 1 1
WIDTH 49
HEIGHT 1
VIEWPOINT 0 0 0 1 0 0 0
POINTS 49
DATA ascii
1.6690831 -1.7792587 -0.38639316 1 3
1.6574764 -1.7792926 -0.3851417 7 3
1.6603317 -1.7955079 -0.38733178 17 3
1.64871 -1.7954727 -0.38608032 22 3
1.6354645 -1.7942041 -0.38451597 27 3
1.6980112 -1.8634748 -0.30954817 1 4
1.62982 -1.7993331 -0.38451597 34 3
1.726458 -1.9073602 -0.31588537 1 4
1.62485 -1.8064799 -0.38482881 21 3
1.6211661 -1.8150876 -0.3854546 11 3
1.6200633 -1.8266468 -0.38670605 7 3
1.6162884 -1.8352554 -0.38733178 1 3
1.6552413 -1.7021221 -0.63617724 6 0
1.6358904 -1.7046993 -0.63307142 7 0
1.7197293 -1.7933171 -0.57362527 2 1
1.6717985 -1.7555612 -0.55967826 6 1
1.6616434 -1.7571385 -0.55832857 9 1
1.6033971 -1.7062505 -0.62737739 10 0
1.6408255 -1.7473017 -0.5533796 12 1
1.6000677 -1.714662 -0.62841266 11 0
1.6294003 -1.7473178 -0.55158001 14 1
1.595085 -1.7219322 -0.62893027 12 0
1.6153466 -1.7444158 -0.54888058 20 1
1.577294 -1.7146935 -0.62427157 15 0
1.6155362 -1.757498 -0.55113012 33 1
1.6671109 -1.8142401 -0.47893062 1 2
1.5644854 -1.71333 -0.62168342 18 0
1.6054502 -1.7588086 -0.54978037 37 1
1.6154659 -1.7710221 -0.46595559 1 2
1.5629898 -1.7225287 -0.6232363 19 0
1.5956821 -1.7597921 -0.54843074 51 1
1.6178052 -1.7848164 -0.46824533 2 2
1.5569674 -1.7279741 -0.6232363 20 0
1.5830096 -1.7581104 -0.5461812 90 1
1.6194457 -1.7992078 -0.47053501 1 2
1.5560786 -1.7391571 -0.62530684 20 0
1.5859553 -1.7737945 -0.54933053 43 1
1.6419383 -1.8370532 -0.47893062 1 2
1.5474321 -1.7416898 -0.62427157 17 0
1.587517 -1.7880633 -0.55202997 22 1
1.5426211 -1.7485292 -0.62478918 14 0
1.5851318 -1.797979 -0.5533796 14 1
1.5380876 -1.7550881 -0.62530684 12 0
1.577877 -1.8017597 -0.55292976 12 1
1.5398697 -1.7689216 -0.62841266 9 0
1.5718935 -1.8069823 -0.55292976 10 1
1.5396912 -1.7818624 -0.63100088 8 0
1.5732194 -1.8213065 -0.55562913 8 1
1.5931709 -1.858128 -0.56507707 4 1
