# .PCD v0.7 - Point Cloud Data file format
VERSION 0.7
FIELDS x y z intensity ring
SIZE 4 4 4 4 2
TYPE F F F F U
COUNT 1 1 1 1 1
WIDTH 53
HEIGHT 1
VIEWPOINT 0 0 0 1 0 0 0
POINTS 53
DATA ascii
1.6767371 -1.9241127 -0.40422669 1 3
1.6661328 -1.9254724 -0.4032881 6 3
1.668413 -1.9417646 -0.40547815 21 3
1.6539322 -1.9385601 -0.40360096 25 3
1.6458783 -1.9428144 -0.4032881 29 3
1.6390865 -1.9485477 -0.4032881 15 3
1.6338826 -1.9554883 -0.40360096 9 3
1.6270469 -1.9611797 -0.40360096 2 3
1.5623097 -1.9067314 -0.66050619 16 0
1.5789998 -1.9284737 -0.57542485 9 1
1.5641785 -1.9226635 -0.66412973 14 0
1.5771757 -1.9400222 -0.57722449 8 1
1.5623131 -1.9341228 -0.66620022 12 0
1.5912021 -1.9712942 -0.58487278 4 1
1.5446745 -1.9260013 -0.66154152 11 0
1.5403489 -1.9344038 -0.66257679 10 0
1.5407755 -1.9488614 -0.66568261 9 0
1.5398504 -1.9766008 -0.67137665 8 0
1.5413089 -2.0072219 -0.67810595 3 0
1.5588887 -2.0448527 -0.68897635 1 0
1.7332674 -1.8783239 -0.68483526 2 0
1.6992924 -1.8544523 -0.6739648 3 0
1.6866314 -1.852934 -0.67137665 7 0
1.6869559 -1.8656815 -0.6739648 7 0
1.6688174 -1.8586216 -0.6693061 7 0
1.6546056 -1.8557838 -0.66620022 7 0
1.6969367 -1.9046 -0.5889219 1 1
1.6468369 -1.8601018 -0.66568261 9 0
1.6773654 -1.8959167 -0.58442289 3 1
1.6377828 -1.8629373 -0.66464734 10 0
1.6565895 -1.8856562 -0.57947397 8 1
1.6350815 -1.8730086 -0.66620022 13 0
1.6448729 -1.885553 -0.57767433 11 1
1.6272681 -1.8772449 -0.66568261 17 0
1.6319014 -1.8839185 -0.57542485 15 1
1.6156644 -1.8770574 -0.66361207 20 0
1.6316693 -1.8969904 -0.57767433 21 1
1.6053369 -1.8782799 -0.66205913 22 0
1.6263032 -1.9041563 -0.57812428 24 1
1.6533782 -1.9365413 -0.49495855 1 2
1.5987707 -1.8838722 -0.66205913 23 0
1.6120839 -1.9009042 -0.57542485 30 1
1.6313738 -1.9243307 -0.49037915 1 2
1.59343 -1.8909187 -0.66257679 24 0
1.6054388 -1.9065197 -0.57542485 43 1
1.6271753 -1.9330173 -0.49114239 2 2
1.5905389 -1.9009143 -0.66412973 25 0
1.6016082 -1.9148227 -0.57632464 33 1
1.5755829 -1.8957782 -0.66050619 21 0
1.5998949 -1.9263982 -0.57812428 21 1
1.5677264 -1.8997762 -0.65998858 18 0
1.5944003 -1.9334745 -0.57857412 13 1
1.6556716 -1.9808637 -0.50182766 1 2
