# .PCD v0.7 - Point Cloud Data file format
VERSION 0.7
FIELDS x y z intensity ring
SIZE 4 4 4 4 2
TYPE F F F F U
COUNT 1 1 1 1 1
WIDTH 61
HEIGHT 1
VIEWPOINT 0 0 0 1 0 0 0
POINTS 61
DATA ascii
1.3328837 -2.0291214 -0.38451597 1 3
1.3085325 -2.0072844 -0.37951005 4 3
1.3154664 -2.0334015 -0.38357735 14 3
1.3104947 -2.0413053 -0.38420308 26 3
1.3015953 -2.0423083 -0.38357735 31 3
1.2863665 -2.0332587 -0.3810744 47 3
1.2757554 -2.0329401 -0.38013577 32 3
1.2745589 -2.0476646 -0.38201302 16 3
1.264647 -2.0468383 -0.3810744 8 3
1.2650814 -2.0628083 -0.38326448 1 3
1.3385533 -2.0048013 -0.55652899 3 1
1.297214 -1.9561652 -0.62893027 17 0
1.3315473 -2.0094612 -0.55652899 7 1
1.2840055 -1.9509991 -0.62582451 19 0
1.3148879 -1.9994431 -0.5524798 10 1
1.2771876 -1.9554694 -0.62582451 19 0
1.3057703 -2.000757 -0.55158001 13 1
1.2724555 -1.9631579 -0.62685978 19 0
1.2913629 -1.9938532 -0.54843074 16 1
1.2582793 -1.9562144 -0.6232363 20 0
1.2833416 -1.9967093 -0.54798079 21 1
1.3307521 -2.0712686 -0.478549 1 2
1.2476265 -1.9538633 -0.62116575 21 0
1.2777615 -2.0025969 -0.54843074 24 1
1.3027619 -2.0425656 -0.47091663 1 2
1.2504492 -1.9726745 -0.62582451 22 0
1.2648571 -1.9969455 -0.54573131 30 1
1.2914242 -2.0404646 -0.46939012 1 2
1.2390971 -1.9707029 -0.62375391 23 0
1.2544191 -1.9966177 -0.54438156 32 1
1.2818491 -2.0418589 -0.46862692 1 2
1.2359551 -1.9817878 -0.62582451 24 0
1.2543073 -2.0127792 -0.54753089 23 1
1.3017029 -2.0896471 -0.478549 1 2
1.2253091 -1.9793053 -0.62375391 23 0
1.2548021 -2.0285285 -0.55068022 20 1
1.2167158 -1.9800657 -0.62271863 22 0
1.2480682 -2.0326786 -0.55068022 14 1
1.2148252 -1.9925479 -0.62530684 21 0
1.2389375 -2.0336943 -0.54978037 12 1
1.211862 -2.0033882 -0.62737739 20 0
1.2368715 -2.0463452 -0.55202997 9 1
1.2055049 -2.0094731 -0.62789506 18 0
1.2367364 -2.0623493 -0.55517924 7 1
1.200459 -2.016989 -0.62893027 17 0
1.2401259 -2.0852926 -0.56012815 3 1
1.1943935 -2.022831 -0.62944794 16 0
1.1902546 -2.0319884 -0.63100088 13 0
1.1880074 -2.0444825 -0.63358909 11 0
1.1885815 -2.0620065 -0.63773018 9 0
1.1804175 -2.0644658 -0.63721251 8 0
1.1798755 -2.0803363 -0.64083594 7 0
1.400147 -1.974574 -0.64860052 3 0
1.392134 -1.9778697 -0.64808291 3 0
1.3819022 -1.9779661 -0.64653003 4 0
1.3709306 -1.9761884 -0.64445943 5 0
1.354164 -1.9666417 -0.63980073 7 0
1.3429307 -1.9649768 -0.63773018 9 0
1.3295566 -1.96006 -0.6346243 12 0
1.3194698 -1.9598817 -0.63307142 13 0
1.3072542 -1.9564441 -0.63048321 17 0
