# .PCD v0.7 - Point Cloud Data file format
VERSION 0.7
FIELDS x y z intensity ring
SIZE 4 4 4 4 2
TYPE F F F F U
COUNT 1 1 1 1 1
WIDTH 60
HEIGHT 1
VIEWPOINT 0 0 0 1 0 0 0
POINTS 60
DATA ascii
1.2732869 -2.0321565 -0.37982294 1 3
1.2515839 -2.0131023 -0.37544277 4 3
1.2532007 -2.03069 -0.37794572 15 3
1.2522938 -2.0451601 -0.37982294 25 3
1.2400192 -2.0410776 -0.37825859 32 3
1.2267683 -2.0352428 -0.37638137 49 3
1.2132192 -2.0295522 -0.37450415 37 3
1.2091502 -2.038872 -0.37544277 16 3
1.2114 -2.058192 -0.37825859 9 3
1.1972363 -2.0504668 -0.3760685 2 3
1.330171 -1.9922466 -0.64187121 3 0
1.3125377 -1.9807737 -0.63669485 3 0
1.2939394 -1.9675882 -0.63100088 7 0
1.2838957 -1.9672397 -0.62944794 9 0
1.27282 -1.9652232 -0.62737739 11 0
1.2669971 -1.9712794 -0.62789506 12 0
1.2434869 -1.9496297 -0.61961281 14 0
1.2892809 -2.0229859 -0.55382955 2 1
1.2325413 -1.9474291 -0.61754227 14 0
1.2717954 -2.011004 -0.54933053 7 1
1.2295038 -1.9584779 -0.61961281 14 0
1.2533735 -1.9972742 -0.54438156 10 1
1.2257242 -1.9676771 -0.62116575 16 0
1.2419256 -1.995237 -0.54258198 14 1
1.2127541 -1.9620838 -0.61805987 17 0
1.2332541 -1.9960287 -0.54168218 18 1
1.2032104 -1.9611548 -0.61650699 19 0
1.2232234 -1.9953372 -0.5403325 21 1
1.28635 -2.0991328 -0.478549 1 2
1.1953526 -1.9636928 -0.61598933 19 0
1.2182764 -2.0029249 -0.54123229 22 1
1.244337 -2.0465746 -0.46557397 1 2
1.1924857 -1.974468 -0.61805987 20 0
1.2032222 -1.9938174 -0.53763306 27 1
1.2148753 -2.013922 -0.45717838 1 2
1.1872264 -1.9821399 -0.61909521 20 0
1.1962551 -1.9980054 -0.53763306 33 1
1.207486 -2.0183611 -0.45717838 1 2
1.1842477 -1.9929152 -0.62116575 20 0
1.1958886 -2.0141058 -0.54078233 25 1
1.256547 -2.1171076 -0.478549 1 2
1.165511 -1.9770665 -0.61495411 20 0
1.1911818 -2.0214183 -0.54168218 20 1
1.1608994 -1.9842556 -0.61598933 20 0
1.1860853 -2.0289288 -0.54258198 14 1
1.157845 -1.9949789 -0.61805987 20 0
1.1803286 -2.0345361 -0.54303187 12 1
1.1537657 -2.0040309 -0.61961281 18 0
1.1689767 -2.0320921 -0.54123229 9 1
1.1477214 -2.0097239 -0.62013048 19 0
1.1699606 -2.0494967 -0.54483151 7 1
1.140098 -2.011838 -0.61961281 18 0
1.1800829 -2.0840917 -0.55292976 3 1
1.1340151 -2.0174897 -0.62013048 15 0
1.1316694 -2.0298724 -0.62271863 14 0
1.1292509 -2.0422633 -0.62530684 12 0
1.1314043 -2.0631316 -0.63048321 9 0
1.1251186 -2.0687654 -0.63100088 8 0
1.1197248 -2.0760808 -0.63203615 8 0
1.3414304 -1.9940029 -0.64394182 3 0
