# .PCD v0.7 - Point Cloud Data file format
VERSION 0.7
FIELDS x y z intensity ring
SIZE 4 4 4 4 2
TYPE F F F F U
COUNT 1 1 1 1 1
WIDTH 58
HEIGHT 1
VIEWPOINT 0 0 0 1 0 0 0
POINTS 58
DATA ascii
1.5938755 -1.9501113 -0.39890796 10 3
1.5898901 -1.9584534 -0.39953369 6 3
1.5871067 -1.9683282 -0.40047228 1 3
1.641111 -1.9235326 -0.40047228 1 3
1.6254486 -1.9186988 -0.39828217 4 3
1.6212842 -1.9273844 -0.39890796 15 3
1.6069489 -1.9239353 -0.39703071 24 3
1.6002233 -1.9295329 -0.39703071 28 3
1.591885 -1.9338598 -0.39671785 23 3
1.5481815 -1.8908347 -0.65481222 25 0
1.5511779 -1.8958439 -0.56552702 45 1
1.5785561 -1.9299924 -0.4846549 1 2
1.5345894 -1.8869656 -0.6517064 22 0
1.5510277 -1.9085389 -0.5677765 24 1
1.5283235 -1.8920441 -0.6517064 19 0
1.5508101 -1.9212537 -0.57002604 17 1
1.5213785 -1.897633 -0.6517064 17 0
1.5376657 -1.9193206 -0.5677765 12 1
1.5252389 -1.9168012 -0.6563651 17 0
1.5306207 -1.9249433 -0.5677765 9 1
1.5125508 -1.9145342 -0.65377688 13 0
1.5335523 -1.9425108 -0.57137573 6 1
1.5046664 -1.9182825 -0.65325934 12 0
1.5471991 -1.9739258 -0.57902408 1 1
1.4966395 -1.9343312 -0.65532982 10 0
1.4942461 -1.9459329 -0.65740043 9 0
1.4944717 -1.9603547 -0.66050619 9 0
1.4961829 -1.9905572 -0.66723549 4 0
1.5123322 -2.0267339 -0.67758828 2 0
1.512148 -2.0413144 -0.6806941 1 0
1.5073022 -2.0496929 -0.68172938 2 0
1.4955821 -2.0487008 -0.67965883 1 0
1.7109129 -1.8935045 -0.68379998 2 0
1.6642981 -1.8548903 -0.66775316 3 0
1.6411064 -1.8419375 -0.66102386 6 0
1.6308266 -1.8433142 -0.65947098 7 0
1.6243824 -1.8489956 -0.65947098 7 0
1.6093504 -1.8441831 -0.65584749 7 0
1.68681 -1.9343081 -0.59252113 1 1
1.5994301 -1.8451306 -0.65429455 9 0
1.6319014 -1.8839185 -0.57542485 2 1
1.5958235 -1.8533522 -0.65532982 11 0
1.6129349 -1.874548 -0.57092583 7 1
1.5952957 -1.8665315 -0.65791804 13 0
1.6022567 -1.8760015 -0.56957608 10 1
1.5875207 -1.8706161 -0.65740043 16 0
1.5931776 -1.8786106 -0.56867629 15 1
1.5697775 -1.8628503 -0.65274167 17 0
1.5916313 -1.8901227 -0.57047588 20 1
1.564505 -1.8698002 -0.65325934 19 0
1.5800239 -1.8896871 -0.56867629 26 1
1.5788686 -1.8889756 -0.478549 1 2
1.5567341 -1.873764 -0.65274167 22 0
1.5684388 -1.8891935 -0.56687671 31 1
1.5898186 -1.9156257 -0.48389161 1 2
1.5498559 -1.879457 -0.65274167 24 0
1.560595 -1.8931531 -0.56642681 46 1
1.5927727 -1.9335626 -0.48694456 1 2
