# .PCD v0.7 - Point Cloud Data file format
VERSION 0.7
FIELDS x y z intensity ring
SIZE 4 4 4 4 2
TYPE F F F F U
COUNT 1 1 1 1 1
WIDTH 57
HEIGHT 1
VIEWPOINT 0 0 0 1 0 0 0
POINTS 57
DATA ascii
1.3974129 -2.1048691 -0.40015942 33 3
1.3925995 -2.1127903 -0.40078515 16 3
1.37836 -2.1079605 -0.39890796 7 3
1.3752946 -2.1193871 -0.40015942 1 3
1.4408252 -2.0753939 -0.40015942 1 3
1.4358138 -2.0836639 -0.40078515 3 3
1.4311272 -2.0916743 -0.40141091 11 3
1.4127195 -2.0803154 -0.39828217 25 3
1.4072928 -2.0887558 -0.39890796 33 3
1.3999932 -2.0936553 -0.39890796 50 3
1.3523698 -2.0331697 -0.65429455 26 0
1.3699486 -2.0611579 -0.57137573 37 1
1.3863082 -2.0865614 -0.48694456 1 2
1.341362 -2.0311949 -0.65222406 27 0
1.3684726 -2.073822 -0.57362527 29 1
1.3880295 -2.1042578 -0.48999751 1 2
1.3349665 -2.0377135 -0.65274167 25 0
1.3633606 -2.0818467 -0.57452506 20 1
1.3288988 -2.0439806 -0.65325934 24 0
1.3504128 -2.0786591 -0.57227552 18 1
1.3217559 -2.0486069 -0.65325934 21 0
1.347737 -2.0896764 -0.5740751 14 1
1.3180809 -2.0578594 -0.65481222 19 0
1.3425359 -2.0976508 -0.57497495 11 1
1.3077809 -2.0575562 -0.65325934 16 0
1.3456531 -2.1187747 -0.57947397 8 1
1.3047129 -2.0686448 -0.65532982 12 0
1.3569511 -2.1531346 -0.58757222 6 1
1.3015835 -2.0797369 -0.65740043 10 0
1.2994118 -2.0924733 -0.65998858 8 0
1.5059384 -1.997722 -0.67034137 2 0
1.5128456 -2.0215268 -0.67655301 2 0
1.5011716 -2.0205925 -0.67448246 2 0
1.488376 -2.0180464 -0.67189431 3 0
1.4699103 -2.0076423 -0.66671789 3 0
1.4617574 -2.0111983 -0.66620022 4 0
1.4479462 -2.0068884 -0.6630944 5 0
1.4521806 -2.0276365 -0.66827077 7 0
1.4238261 -2.0027778 -0.6584357 9 0
1.4145988 -2.0045788 -0.65740043 11 0
1.4790423 -2.0974531 -0.59252113 1 1
1.4098096 -2.0126688 -0.6584357 15 0
1.4460099 -2.0658834 -0.58217335 6 1
1.399467 -2.0128193 -0.65688276 19 0
1.4224687 -2.046664 -0.57542485 9 1
1.3927846 -2.0174489 -0.65688276 22 0
1.4153157 -2.0516169 -0.57542485 13 1
1.3813659 -2.0159242 -0.65481222 24 0
1.4118084 -2.0611224 -0.57677454 17 1
1.3670663 -2.0093131 -0.65118873 24 0
1.4024141 -2.0628147 -0.57587475 20 1
1.3629352 -2.0191135 -0.65274167 25 0
1.3875747 -2.0563896 -0.57272542 24 1
1.4158444 -2.0998664 -0.49228725 1 2
1.3591046 -2.0286739 -0.65429455 26 0
1.3821965 -2.0647006 -0.57362527 27 1
1.3975874 -2.0884793 -0.48847106 1 2
