# .PCD v0.7 - Point Cloud Data file format
VERSION 0.7
FIELDS x y z intensity ring
SIZE 4 4 4 4 2
TYPE F F F F U
COUNT 1 1 1 1 1
WIDTH 58
HEIGHT 1
VIEWPOINT 0 0 0 1 0 0 0
POINTS 58
DATA ascii
1.4956664 -1.9123008 -0.38451597 1 3
1.4332513 -1.84574 -0.37012401 1 3
1.4316241 -1.8569894 -0.37137547 7 3
1.4227319 -1.8588381 -0.37074974 20 3
1.4198202 -1.8685116 -0.37168834 26 3
1.4180477 -1.8797641 -0.3729398 31 3
1.4031887 -1.8736347 -0.37074974 20 3
1.3989971 -1.8816919 -0.37137547 10 3
1.3935932 -1.8881532 -0.37168834 6 3
1.4348614 -1.9583374 -0.38451597 1 3
1.5378124 -1.8943031 -0.65377688 2 0
1.5041933 -1.8668325 -0.64238888 2 0
1.4699106 -1.8373759 -0.63048321 3 0
1.4409752 -1.8135023 -0.62064809 7 0
1.4337567 -1.8167543 -0.62013048 9 0
1.4444444 -1.8316112 -0.53853285 1 1
1.4214491 -1.8141447 -0.61754227 14 0
1.4212229 -1.8151611 -0.53223425 4 1
1.410363 -1.8129961 -0.61547172 18 0
1.4100939 -1.8139566 -0.53043461 5 1
1.4503936 -1.8664703 -0.4594681 1 2
1.3969407 -1.8087347 -0.6123659 22 0
1.4049443 -1.8204105 -0.5308845 6 1
1.4366741 -1.8621954 -0.45717838 1 2
1.3847411 -1.8059347 -0.60977769 24 0
1.397396 -1.8237566 -0.53043461 7 1
1.4158397 -1.848496 -0.45259899 2 2
1.379599 -1.8122944 -0.6102953 25 0
1.3815827 -1.8162154 -0.52683538 9 1
1.4117551 -1.8565521 -0.4533622 4 2
1.3720998 -1.8155577 -0.60977769 32 0
1.3740602 -1.8194718 -0.52638549 10 1
1.4159119 -1.8755708 -0.45679674 6 2
1.3645943 -1.818791 -0.60926002 44 0
1.3712076 -1.8289348 -0.52773523 16 1
1.3916953 -1.8569366 -0.45107248 7 2
1.3559295 -1.8204446 -0.60822481 57 0
1.3729597 -1.844653 -0.5308845 11 1
1.3863769 -1.8633586 -0.45145413 4 2
1.3472695 -1.8220601 -0.60718954 45 0
1.3676704 -1.8510016 -0.53133446 7 1
1.3903618 -1.8823991 -0.45488867 1 2
1.3500463 -1.8392105 -0.61133063 28 0
1.3485225 -1.8384794 -0.52638549 6 1
1.4139657 -1.9284058 -0.46481073 1 2
1.3481687 -1.850157 -0.61340117 22 0
1.3512735 -1.8557783 -0.52998471 6 1
1.3439667 -1.8579822 -0.61443645 19 0
1.3550615 -1.874698 -0.53403383 5 1
1.3360214 -1.8613263 -0.61391884 16 0
1.3530536 -1.8857503 -0.53583348 3 1
1.330637 -1.8675517 -0.61443645 12 0
1.3868221 -1.9478463 -0.55202997 1 1
1.3363806 -1.889535 -0.62013048 9 0
1.3464266 -1.9179051 -0.62789506 7 0
1.3562907 -1.9463681 -0.63565958 3 0
1.3531264 -1.9556209 -0.63721251 2 0
1.3462917 -1.9603324 -0.63721251 1 0
