# .PCD v0.7 - Point Cloud Data file format
VERSION 0.7
FIELDS x y z intensity ring
SIZE 4 4 4 4 2
TYPE F F F F U
COUNT 1 1 1 1 1
WIDTH 49
HEIGHT 1
VIEWPOINT 0 0 0 1 0 0 0
POINTS 49
DATA ascii
1.4010558 -1.850513 -0.36762103 1 3
1.3984731 -1.8598855 -0.36855966 8 3
1.3884274 -1.8600068 -0.36762103 21 3
1.3831023 -1.866429 -0.3679339 25 3
1.3695555 -1.8616985 -0.36605671 28 3
1.3642136 -1.8680629 -0.36636955 18 3
1.3646412 -1.8824095 -0.36824676 8 3
1.3546003 -1.8823513 -0.36730817 2 3
1.4721922 -1.9304308 -0.38451597 1 3
1.4717779 -1.8851459 -0.64083594 3 0
1.4166646 -1.8276697 -0.61961281 5 0
1.3882056 -1.8032727 -0.60977769 10 0
1.3862783 -1.814489 -0.61184824 15 0
1.4233309 -1.8650103 -0.45603353 1 2
1.3776011 -1.8162388 -0.61081296 19 0
1.4090159 -1.8590034 -0.53853285 1 1
1.4144409 -1.8668376 -0.45527029 3 2
1.3631185 -1.8102337 -0.60718954 23 0
1.3794042 -1.8325267 -0.52953482 1 1
1.3878531 -1.8450912 -0.44878277 9 2
1.354794 -1.8116496 -0.6061542 25 0
1.3659998 -1.8279642 -0.52683538 1 1
1.3805521 -1.8481106 -0.44840118 13 2
1.3427042 -1.808612 -0.60356599 27 0
1.3456779 -1.8139404 -0.52143657 2 1
1.3717537 -1.8497643 -0.44763795 18 2
1.3386751 -1.8163985 -0.60460132 32 0
1.3312489 -1.8076427 -0.51828724 4 1
1.3617967 -1.8497984 -0.44649309 23 2
1.3346081 -1.8241782 -0.6056366 45 0
1.3260809 -1.8138516 -0.51873714 6 1
1.3553314 -1.8545408 -0.44649309 23 2
1.3282323 -1.8288258 -0.6056366 52 0
1.326609 -1.8279325 -0.52143657 3 1
1.3476968 -1.8576711 -0.44611144 13 2
1.3173211 -1.8271827 -0.60356599 39 0
1.3361678 -1.8546883 -0.52773523 1 1
1.3526772 -1.8782955 -0.44992763 7 2
1.3086865 -1.8286282 -0.60253078 24 0
1.3568913 -1.8973838 -0.53853285 1 1
1.3449707 -1.8814088 -0.44954604 4 2
1.3078893 -1.8410598 -0.60511893 21 0
1.3502599 -1.9021087 -0.53853285 1 1
1.3463483 -1.8972999 -0.45221734 1 2
1.3081349 -1.8550867 -0.60822481 17 0
1.3094059 -1.8707203 -0.61184824 13 0
1.2932725 -1.8607751 -0.60718954 9 0
1.298836 -1.8827698 -0.61288351 7 0
1.3195419 -1.9271423 -0.62582451 3 0
