# .PCD v0.7 - Point Cloud Data file format
VERSION 0.7
FIELDS x y z intensity ring
SIZE 4 4 4 4 2
TYPE F F F F U
COUNT 1 1 1 1 1
WIDTH 56
HEIGHT 1
VIEWPOINT 0 0 0 1 0 0 0
POINTS 56
DATA ascii
1.8051515 -1.9088941 -0.41611573 1 3
1.7940869 -1.9111768 -0.41517711 2 3
1.7927927 -1.9232076 -0.4164286 13 3
1.787747 -1.9305913 -0.41674146 24 3
1.7783233 -1.9339118 -0.41611573 27 3
1.76357 -1.9313554 -0.41423854 24 3
1.7621249 -1.9433529 -0.41549 11 3
1.7543489 -1.9477178 -0.41517711 6 3
1.7518317 -1.9579413 -0.41611573 1 3
1.8165442 -1.8279939 -0.69052929 3 0
1.8060815 -1.8301985 -0.68897635 7 0
1.7848085 -1.8213141 -0.68328232 9 0
1.781454 -1.8299911 -0.68431759 11 0
1.7737128 -1.8348095 -0.68379998 14 0
1.8376466 -1.90161 -0.6105172 1 1
1.7525806 -1.8256598 -0.67810595 16 0
1.8036835 -1.8802067 -0.60151911 2 1
1.7425174 -1.8272674 -0.67655301 18 0
1.79475 -1.8833561 -0.60061932 7 1
1.7351197 -1.8316332 -0.6760354 19 0
1.7764374 -1.8765607 -0.59657025 10 1
1.7283949 -1.8379804 -0.6760354 20 0
1.7565286 -1.8685514 -0.59207124 14 1
1.7219685 -1.8440025 -0.6760354 21 0
1.7456797 -1.8707025 -0.59072149 18 1
1.7115806 -1.8457524 -0.67448246 23 0
1.736817 -1.8736229 -0.5898217 22 1
1.807797 -1.9515598 -0.51709241 1 2
1.7002149 -1.8457344 -0.67241186 24 0
1.7329057 -1.8825415 -0.59072149 27 1
1.7587752 -1.9113141 -0.50488061 1 2
1.6937618 -1.8516579 -0.67241186 24 0
1.7210647 -1.8828256 -0.5889219 38 1
1.7441468 -1.9087459 -0.50259089 1 2
1.6898859 -1.8604193 -0.67344719 23 0
1.7171015 -1.8917079 -0.5898217 33 1
1.7876055 -1.9700717 -0.51709241 1 2
1.6888838 -1.8717499 -0.67551774 23 0
1.7212586 -1.9089696 -0.59342092 21 1
1.6800889 -1.8744631 -0.67448246 22 0
1.7201196 -1.9204735 -0.59522051 13 1
1.6735355 -1.8803163 -0.67448246 22 0
1.7250612 -1.9395711 -0.59926963 10 1
1.6707996 -1.8904891 -0.6760354 19 0
1.7131203 -1.9397385 -0.59747005 8 1
1.6702296 -1.9038613 -0.67862362 18 0
1.7063389 -1.9457066 -0.59747005 4 1
1.6724561 -1.9198765 -0.68224704 15 0
1.7490973 -2.0092714 -0.61501622 1 1
1.6651502 -1.9795322 -0.69311744 6 0
1.8916433 -1.8261005 -0.70450544 2 0
1.890798 -1.8380786 -0.70657599 2 0
1.8705655 -1.8311538 -0.70139962 2 0
1.8600351 -1.8336034 -0.69984674 3 0
1.8536233 -1.8400849 -0.69984674 3 0
1.850244 -1.8489527 -0.70088202 3 0
