# .PCD v0.7 - Point Cloud Data file format
VERSION 0.7
FIELDS x y z intensity ring
SIZE 4 4 4 4 2
TYPE F F F F U
COUNT 1 1 1 1 1
WIDTH 65
HEIGHT 1
VIEWPOINT 0 0 0 1 0 0 0
POINTS 65
DATA ascii
1.6124954 -1.7777109 -0.38013577 13 3
1.6065913 -1.7830485 -0.38013577 22 3
1.5776345 -1.8008486 -0.37919718 13 3
1.5739317 -1.8093255 -0.37982294 9 3
1.5624412 -1.8088287 -0.37857145 3 3
1.476933 -1.819311 -0.62789506 6 0
1.4854031 -1.8173949 -0.62893027 8 0
1.4745299 -1.8287106 -0.62944794 3 0
1.478681 -1.8476772 -0.6341067 3 0
1.6019671 -1.6916653 -0.62427157 12 0
1.5960523 -1.6972469 -0.62427157 15 0
1.5835254 -1.6957481 -0.62168342 19 0
1.581835 -1.7052389 -0.6232363 19 0
1.5732549 -1.7079082 -0.62220097 20 0
1.5581566 -1.7034113 -0.61857754 22 0
1.5512 -1.7071393 -0.61805987 24 0
1.5455304 -1.7122737 -0.61805987 24 0
1.5382549 -1.7162198 -0.61754227 25 0
1.5627995 -1.7448292 -0.54078233 34 1
1.5284014 -1.7172496 -0.61598933 26 0
1.5172807 -1.7167842 -0.61391884 26 0
1.5505803 -1.755697 -0.54078233 66 1
1.5112787 -1.72207 -0.61391884 26 0
1.5090657 -1.7317041 -0.61547172 25 0
1.5370057 -1.7650098 -0.5403325 24 1
1.5105964 -1.7457262 -0.61857754 25 0
1.5054467 -1.7527168 -0.61909521 24 0
1.4955586 -1.7535514 -0.61754227 24 0
1.4919254 -1.7617097 -0.61857754 22 0
1.4947799 -1.7769959 -0.62220097 19 0
1.4935219 -1.7881337 -0.62427157 17 0
1.4959035 -1.8037453 -0.62789506 13 0
1.4855992 -1.8047414 -0.62634212 10 0
1.6755128 -1.6848967 -0.63669485 3 0
1.6804804 -1.7017318 -0.64083594 3 0
1.6653581 -1.6976415 -0.63721251 4 0
1.6513338 -1.6951417 -0.6341067 6 0
1.6440635 -1.6995072 -0.63358909 7 0
1.6314296 -1.6982697 -0.63100088 8 0
1.6241581 -1.7025563 -0.63048321 10 0
1.6369638 -1.753587 -0.55382955 3 1
1.6162598 -1.7435696 -0.54888058 8 1
1.6048846 -1.7434658 -0.54708099 11 1
1.6446148 -1.788505 -0.38482881 1 3
1.604048 -1.7548107 -0.54888058 14 1
1.6237097 -1.7781889 -0.38138729 3 3
1.5877401 -1.7485784 -0.54528135 18 1
1.5741016 -1.7451518 -0.54258198 23 1
1.6486235 -1.8284134 -0.478549 1 2
1.6212776 -1.8107547 -0.4724431 1 2
1.6082605 -1.7974784 -0.38201302 28 3
1.5579945 -1.7517298 -0.54123229 41 1
1.5771173 -1.7738541 -0.46137619 1 2
1.5980403 -1.7986512 -0.3810744 36 3
1.5657183 -1.7734611 -0.45984969 2 2
1.5943658 -1.8071808 -0.38170013 26 3
1.5495819 -1.7669595 -0.54258198 53 1
1.5983444 -1.8232042 -0.47129822 1 2
1.5423071 -1.7836306 -0.54438156 19 1
1.542419 -1.7963961 -0.5466311 13 1
1.5370889 -1.8035204 -0.54708099 10 1
1.5436907 -1.8234812 -0.55158001 8 1
1.5460937 -1.8393005 -0.55472934 5 1
1.696543 -1.6829768 -0.64031839 2 0
1.6906582 -1.6888884 -0.64031839 2 0
