# .PCD v0.7 - Point Cloud Data file format
VERSION 0.7
FIELDS x y z intensity ring
SIZE 4 4 4 4 2
TYPE F F F F U
COUNT 1 1 1 1 1
WIDTH 61
HEIGHT 1
VIEWPOINT 0 0 0 1 0 0 0
POINTS 61
DATA ascii
1.0834696 -2.0437298 -0.36636955 30 3
1.0785255 -2.050808 -0.3669953 15 3
1.0768404 -2.0650697 -0.36887249 8 3
1.0705327 -2.0705707 -0.36918539 2 3
1.130233 -2.0272961 -0.36762103 1 3
1.1212378 -2.0277715 -0.3669953 7 3
1.1103534 -2.0247447 -0.36574382 20 3
1.106699 -2.0357428 -0.3669953 30 3
1.0977112 -2.0361159 -0.36636955 36 3
1.0924598 -2.0434194 -0.3669953 59 3
1.0531832 -1.9824189 -0.6014955 19 0
1.0489582 -1.9912106 -0.60304838 19 0
1.0441388 -1.9981025 -0.60408366 17 0
1.0362691 -2.0000196 -0.60356599 16 0
1.0283986 -2.0019064 -0.60304838 17 0
1.0187742 -2.0003197 -0.6014955 15 0
1.0126563 -2.0055883 -0.60201317 15 0
1.0117022 -2.0212035 -0.6056366 15 0
1.0708293 -2.0173328 -0.52728528 32 1
1.0821306 -2.0394831 -0.44878277 1 2
1.0595938 -2.0122514 -0.5250358 24 1
1.0570729 -2.024575 -0.52728528 20 1
1.0535829 -2.0351748 -0.52908486 16 1
1.0509219 -2.0475087 -0.53133446 13 1
1.0455359 -2.0546381 -0.53223425 9 1
1.040113 -2.0617552 -0.53313404 7 1
1.0402458 -2.0791352 -0.53673327 3 1
1.009289 -2.0331991 -0.60822481 14 0
1.0001249 -2.0334179 -0.60718954 12 0
0.9938674 -2.0386329 -0.60770714 11 0
0.98842597 -2.0455685 -0.60874242 9 0
0.99081916 -2.0679994 -0.61443645 8 0
0.98939508 -2.0836611 -0.61805987 7 0
0.99116391 -2.1063299 -0.62375391 5 0
1.1252478 -1.9513454 -0.60356599 11 0
1.1213073 -1.9602921 -0.60511893 12 0
1.1135044 -1.9625143 -0.60460132 12 0
1.0976375 -1.9647964 -0.60304838 13 0
1.0889001 -1.9652362 -0.60201317 14 0
1.0829637 -1.9707181 -0.60253078 16 0
1.0803543 -1.9831566 -0.60511893 18 0
1.0715886 -1.9835165 -0.60408366 18 0
1.0610092 -1.9804335 -0.60201317 18 0
1.204511 -2.0078166 -0.62737739 3 0
1.1859863 -1.991881 -0.62116575 3 0
1.1692008 -1.9793754 -0.61598933 7 0
1.1661913 -1.9901115 -0.61805987 9 0
1.1417614 -1.9641073 -0.60874242 11 0
1.1613636 -2.0319648 -0.5403325 1 1
1.1331198 -1.9987104 -0.53043461 6 1
1.1136248 -1.9779795 -0.60822481 13 0
1.1245747 -1.9990602 -0.52953482 9 1
1.1179392 -2.0027785 -0.52953482 12 1
1.1099975 -2.0049636 -0.52908486 16 1
1.0954888 -1.9951608 -0.52548569 21 1
1.0903817 -2.0023954 -0.52638549 23 1
1.118441 -2.0556319 -0.45488867 1 2
1.0830352 -2.0063784 -0.52638549 26 1
1.1075296 -2.0526123 -0.4533622 1 2
1.0778644 -2.0135827 -0.52728528 35 1
1.0836859 -2.0253074 -0.44649309 1 2
