# .PCD v0.7 - Point Cloud Data file format
VERSION 0.7
FIELDS x y z intensity ring
SIZE 4 4 4 4 2
TYPE F F F F U
COUNT 1 1 1 1 1
WIDTH 59
HEIGHT 1
VIEWPOINT 0 0 0 1 0 0 0
POINTS 59
DATA ascii
1.5010599 -1.8803451 -0.3810744 1 3
1.4748551 -1.8608038 -0.3760685 4 3
1.4769019 -1.8768073 -0.37825859 12 3
1.4764224 -1.8897344 -0.37982294 23 3
1.4649742 -1.8886331 -0.37857145 27 3
1.4475253 -1.8796499 -0.37575564 31 3
1.440084 -1.8828706 -0.37544277 20 3
1.4421962 -1.8986468 -0.37763283 10 3
1.428424 -1.8942065 -0.37575564 6 3
1.4872128 -1.8209058 -0.62996554 8 0
1.4747634 -1.8185837 -0.62737739 9 0
1.4934717 -1.8423107 -0.54753089 2 1
1.4614538 -1.8144372 -0.62427157 12 0
1.4809225 -1.8399222 -0.54528135 8 1
1.4575245 -1.8225449 -0.62530684 16 0
1.4635417 -1.8313794 -0.54123229 12 1
1.4403421 -1.8140051 -0.62064809 18 0
1.4547175 -1.8334239 -0.5403325 15 1
1.4423733 -1.8296418 -0.62427157 20 0
1.4446911 -1.8338981 -0.53898275 20 1
1.4228803 -1.8179312 -0.61857754 23 0
1.4370801 -1.8373947 -0.53853285 25 1
1.5175964 -1.9410377 -0.47893062 1 2
1.4117843 -1.8167852 -0.61650699 25 0
1.433048 -1.8454783 -0.53943264 33 1
1.4602504 -1.8811873 -0.46290264 1 2
1.4066139 -1.8232318 -0.6170246 26 0
1.4182687 -1.8396659 -0.53628331 47 1
1.4392942 -1.8676126 -0.45832324 1 2
1.4029101 -1.8309531 -0.61805987 36 0
1.4109758 -1.8428118 -0.53583348 58 1
1.4259336 -1.8630211 -0.45603353 1 2
1.3991704 -1.8386701 -0.61909521 33 0
1.4060364 -1.8490317 -0.53628331 36 1
1.4910322 -1.961517 -0.47893062 1 2
1.3962373 -1.8481672 -0.62064809 24 0
1.4124892 -1.8710369 -0.54123229 22 1
1.3863003 -1.8483931 -0.61909521 20 0
1.4082868 -1.8790747 -0.54213208 15 1
1.3875902 -1.8643099 -0.62271863 18 0
1.3982292 -1.8792888 -0.54078233 11 1
1.3845183 -1.8738034 -0.62427157 16 0
1.3867021 -1.8781301 -0.53898275 8 1
1.3813969 -1.8832979 -0.62582451 13 0
1.3989031 -1.907863 -0.5461812 6 1
1.3671819 -1.8769379 -0.62220097 11 0
1.4415481 -1.9804838 -0.56552702 1 1
1.3636886 -1.8866333 -0.62375391 8 0
1.3615993 -1.8976605 -0.62582451 8 0
1.36696 -1.9199492 -0.63151848 7 0
1.359026 -1.9208425 -0.63048321 7 0
1.3486465 -1.9210672 -0.62893027 6 0
1.3562907 -1.9463681 -0.63565958 3 0
1.3681701 -1.9781007 -0.64445943 2 0
1.5621217 -1.8465594 -0.64808291 3 0
1.5274053 -1.8177119 -0.63617724 4 0
1.5061992 -1.8052323 -0.62996554 7 0
1.4965065 -1.8057548 -0.62841266 7 0
1.5009234 -1.8246552 -0.63307142 7 0
