# .PCD v0.7 - Point Cloud Data file format
VERSION 0.7
FIELDS x y z intensity ring
SIZE 4 4 4 4 2
TYPE F F F F U
COUNT 1 1 1 1 1
WIDTH 60
HEIGHT 1
VIEWPOINT 0 0 0 1 0 0 0
POINTS 60
DATA ascii
1.2309684 -2.0649681 -0.3807615 1 3
1.190872 -2.0152593 -0.37074974 3 3
1.1921769 -2.032829 -0.37325269 11 3
1.1840804 -2.0352707 -0.3729398 24 3
1.1775998 -2.0413079 -0.37325269 30 3
1.1626184 -2.0316899 -0.37074974 45 3
1.152594 -2.0305822 -0.36981112 42 3
1.15519 -2.0518062 -0.3729398 19 3
1.1480207 -2.0558259 -0.3729398 9 3
1.1322238 -2.0442686 -0.37012401 4 3
1.0739777 -2.0173092 -0.6123659 12 0
1.0750463 -2.0364215 -0.6170246 11 0
1.0661393 -2.0367386 -0.61598933 11 0
1.068282 -2.0574079 -0.62116575 9 0
1.061978 -2.0628419 -0.62168342 9 0
1.0582837 -2.0734191 -0.62375391 7 0
1.0588897 -2.0926144 -0.62841266 7 0
1.0628396 -2.1187456 -0.63514197 4 0
1.2236511 -1.9712415 -0.62168342 8 0
1.2113537 -1.9674878 -0.61909521 9 0
1.2004501 -1.9651099 -0.6170246 9 0
1.1879172 -1.9591686 -0.61391884 9 0
1.181414 -1.963097 -0.61391884 10 0
1.1768788 -1.9703209 -0.61495411 11 0
1.191467 -1.9963268 -0.53673327 9 1
1.1722573 -1.9798121 -0.61650699 13 0
1.1798236 -1.9941783 -0.53493363 12 1
1.1653392 -1.9838921 -0.61650699 14 0
1.1722175 -1.9963994 -0.53448373 17 1
1.1519437 -1.9760625 -0.61288351 16 0
1.1662223 -2.0021627 -0.53493363 21 1
1.1437265 -1.9785991 -0.6123659 18 0
1.1582514 -2.0045345 -0.53448373 23 1
1.1387349 -1.9859313 -0.61340117 18 0
1.1460531 -2.0003116 -0.53223425 27 1
1.1337059 -1.9932524 -0.61443645 19 0
1.1381007 -2.0026054 -0.5317843 37 1
1.1238934 -1.9921498 -0.61288351 19 0
1.1349311 -2.0133567 -0.53358394 30 1
1.1391749 -2.0217097 -0.45107248 1 2
1.1141026 -1.9910035 -0.61133063 19 0
1.1345536 -2.0292125 -0.53673327 21 1
1.1071461 -1.9948803 -0.61133063 17 0
1.1011074 -2.0004251 -0.61184824 15 0
1.1156638 -2.0285459 -0.53448373 13 1
1.0987461 -2.0127347 -0.61443645 13 0
1.1067097 -2.0290065 -0.53358394 10 1
1.0917135 -2.0165579 -0.61443645 14 0
1.0831926 -2.0167632 -0.61340117 13 0
1.2742699 -2.0056062 -0.63669485 3 0
1.2610797 -2.000237 -0.63358909 3 0
1.2397459 -1.9816979 -0.62634212 7 0
1.2248765 -2.0217152 -0.54573131 1 1
1.2051101 -2.0040553 -0.53988254 6 1
1.181879 -2.0470748 -0.4594681 1 2
1.1630182 -2.0307441 -0.45488867 1 2
1.1520435 -2.0279632 -0.4533622 1 2
1.1284083 -2.0348644 -0.53718311 17 1
1.1129599 -2.0566595 -0.53988254 8 1
1.1131457 -2.0742688 -0.54348177 5 1
