# .PCD v0.7 - Point Cloud Data file format
VERSION 0.7
FIELDS x y z intensity ring
SIZE 4 4 4 4 2
TYPE F F F F U
COUNT 1 1 1 1 1
WIDTH 52
HEIGHT 1
VIEWPOINT 0 0 0 1 0 0 0
POINTS 52
DATA ascii
1.7641307 -1.9442008 -0.41580287 1 3
1.7308873 -1.9209962 -0.40954545 3 3
1.7218728 -1.9237816 -0.40891972 12 3
1.7243328 -1.9401157 -0.41110981 24 3
1.7145969 -1.9434601 -0.41048408 29 3
1.6970508 -1.9378427 -0.40798113 20 3
1.6951207 -1.9500132 -0.40923262 10 3
1.683821 -1.9493493 -0.40798113 4 3
1.6022002 -1.9863377 -0.68379998 5 0
1.6037102 -2.0024734 -0.68742341 3 0
1.7577055 -1.8554753 -0.68483526 4 0
1.7353339 -1.8447143 -0.67862362 6 0
1.7318453 -1.8532817 -0.67965883 7 0
1.7270042 -1.8604302 -0.68017644 7 0
1.7113341 -1.8565043 -0.67655301 8 0
1.7362034 -1.8848032 -0.59162134 1 1
1.70093 -1.8581916 -0.67500007 10 0
1.6931338 -1.8626883 -0.67448246 13 0
1.7099001 -1.8824532 -0.58712232 10 1
1.6853272 -1.8671529 -0.6739648 15 0
1.6954874 -1.8797281 -0.58442289 13 1
1.6800889 -1.8744631 -0.67448246 18 0
1.6905452 -1.8867916 -0.58487278 18 1
1.7077109 -1.9072891 -0.49762988 1 2
1.6648711 -1.8699242 -0.67085898 20 0
1.6826532 -1.8912252 -0.58442289 21 1
1.6516097 -1.868776 -0.66827077 23 0
1.6718402 -1.8929976 -0.58307314 23 1
1.67843 -1.9017968 -0.49305046 1 2
1.6460233 -1.8762691 -0.66878843 24 0
1.6584677 -1.8917857 -0.58082366 33 1
1.648016 -1.8924876 -0.67241186 24 0
1.6553606 -1.9022619 -0.58217335 32 1
1.6433266 -1.8991164 -0.67292953 20 0
1.6519256 -1.910401 -0.58307314 20 1
1.6329106 -1.9004455 -0.67137665 17 0
1.6557393 -1.9276949 -0.58667237 13 1
1.6228371 -1.9014418 -0.66982371 16 0
1.6527941 -1.9379109 -0.58802211 10 1
1.622435 -1.9144636 -0.67241186 13 0
1.6409819 -1.9377202 -0.58622253 7 1
1.6269368 -1.933419 -0.67707068 11 0
1.6177007 -1.9361212 -0.6760354 9 0
1.6063364 -1.9355286 -0.6739648 9 0
1.7721726 -1.8577154 -0.68794107 3 0
1.7666276 -1.9044477 -0.59971952 1 1
1.7361902 -1.8980416 -0.59387082 7 1
1.7166967 -1.9308453 -0.50220931 1 2
1.6921473 -1.9315634 -0.49915636 2 2
1.7005157 -1.9555298 -0.50373578 1 2
1.6530209 -1.9658089 -0.59297103 4 1
1.6677299 -1.9967059 -0.60061932 1 1
