# .PCD v0.7 - Point Cloud Data file format
VERSION 0.7
FIELDS x y z intensity ring
SIZE 4 4 4 4 2
TYPE F F F F U
COUNT 1 1 1 1 1
WIDTH 60
HEIGHT 1
VIEWPOINT 0 0 0 1 0 0 0
POINTS 60
DATA ascii
1.6194295 -1.8086904 -0.38451597 1 3
1.5911052 -1.7889578 -0.37919718 2 3
1.5874661 -1.7974623 -0.37982294 9 3
1.5808675 -1.8032686 -0.37982294 21 3
1.5745634 -1.8087759 -0.37982294 25 3
1.5737247 -1.8199641 -0.3810744 34 3
1.5673622 -1.8254465 -0.3810744 29 3
1.5635437 -1.8339128 -0.38170013 15 3
1.5443692 -1.8242828 -0.37857145 9 3
1.5405341 -1.8326868 -0.37919718 3 3
1.463423 -1.7879537 -0.61909521 20 0
1.513834 -1.8508612 -0.55202997 5 1
1.4620466 -1.7990478 -0.62116575 19 0
1.4630367 -1.8131611 -0.62427157 17 0
1.462738 -1.8257955 -0.62685978 14 0
1.4643978 -1.8811016 -0.63876545 4 0
1.6684064 -1.7108738 -0.64031839 2 0
1.6624243 -1.7166872 -0.64031839 3 0
1.6607401 -1.7263674 -0.64187121 3 0
1.6560384 -1.7335507 -0.64238888 4 0
1.6393404 -1.7281083 -0.63824779 4 0
1.6253504 -1.7253833 -0.63514197 5 0
1.6166784 -1.7282246 -0.6341067 8 0
1.5988027 -1.7211189 -0.62944794 11 0
1.591475 -1.7252691 -0.62893027 13 0
1.5736994 -1.7179931 -0.62427157 16 0
1.5614926 -1.716058 -0.62168342 18 0
1.6138699 -1.774864 -0.55382955 2 1
1.5551925 -1.7217697 -0.62168342 19 0
1.5919927 -1.7631302 -0.54843074 7 1
1.5504626 -1.7286258 -0.62220097 21 0
1.5764152 -1.758795 -0.54528135 10 1
1.5392801 -1.7282569 -0.62013048 20 0
1.570574 -1.7640131 -0.54528135 14 1
1.5245796 -1.7232238 -0.61650699 22 0
1.564407 -1.7694846 -0.54528135 18 1
1.5131545 -1.7229939 -0.61443645 22 0
1.5517924 -1.7676122 -0.54303187 21 1
1.5122097 -1.7340894 -0.61650699 24 0
1.5350611 -1.7615347 -0.53943264 30 1
1.6184001 -1.8578233 -0.47893062 1 2
1.503618 -1.7364364 -0.61547172 25 0
1.5330374 -1.7710356 -0.54078233 35 1
1.5553921 -1.798129 -0.46213943 1 2
1.4978515 -1.741413 -0.61547172 25 0
1.5230352 -1.7719426 -0.53943264 57 1
1.541744 -1.7943422 -0.45984969 1 2
1.484236 -1.737817 -0.6123659 25 0
1.5244312 -1.7861419 -0.54213208 46 1
1.5558591 -1.8236095 -0.46595559 1 2
1.4869072 -1.7533009 -0.61598933 24 0
1.5194473 -1.7929389 -0.54258198 27 1
1.4832669 -1.7614359 -0.6170246 24 0
1.5119246 -1.7967408 -0.54213208 18 1
1.4833051 -1.7740128 -0.61961281 24 0
1.5118911 -1.8094846 -0.54438156 14 1
1.4771036 -1.7791797 -0.61961281 22 0
1.5117871 -1.82225 -0.5466311 10 1
1.4635113 -1.7753811 -0.61650699 22 0
1.5140901 -1.838045 -0.54978037 8 1
