# .PCD v0.7 - Point Cloud Data file format
VERSION 0.7
FIELDS x y z intensity ring
SIZE 4 4 4 4 2
TYPE F F F F U
COUNT 1 1 1 1 1
WIDTH 50
HEIGHT 1
VIEWPOINT 0 0 0 1 0 0 0
POINTS 50
DATA ascii
1.5078535 -2.103044 -0.40985835 1 3
1.4833223 -2.0841541 -0.40516531 6 3
1.4794576 -2.0941591 -0.40610394 22 3
1.4778092 -2.1073973 -0.40766826 29 3
1.4674263 -2.1074228 -0.40672967 41 3
1.449953 -2.0979071 -0.40391383 32 3
1.4448559 -2.1062138 -0.40453959 14 3
1.4419421 -2.1177757 -0.40579104 6 3
1.4710405 -2.1768069 -0.41611573 1 3
1.3762903 -2.0636601 -0.66464734 21 0
1.4070475 -2.1113749 -0.58577257 10 1
1.3733433 -2.0748956 -0.66671789 19 0
1.3921438 -2.1048958 -0.5826233 7 1
1.367153 -2.0812914 -0.66723549 18 0
1.3986894 -2.1309216 -0.58847201 4 1
1.3577696 -2.0828142 -0.66620022 17 0
1.5814097 -2.0616782 -0.69622326 2 0
1.5691622 -2.0613117 -0.69415271 2 0
1.538662 -2.0359523 -0.68379998 2 0
1.5327049 -2.0428562 -0.68431759 3 0
1.5128711 -2.0311513 -0.67862362 8 0
1.4977317 -2.0255466 -0.67500007 10 0
1.4860796 -2.0245328 -0.67292953 12 0
1.4733151 -2.0219014 -0.67034137 13 0
1.5294391 -2.0996928 -0.59971952 1 1
1.459807 -2.0173857 -0.66723549 14 0
1.493554 -2.0655398 -0.58847201 6 1
1.4538834 -2.0240381 -0.66775316 15 0
1.4726986 -2.051743 -0.58307314 10 1
1.444566 -2.0259547 -0.66671789 16 0
1.463266 -2.0536969 -0.58217335 14 1
1.4452978 -2.0420229 -0.67034137 18 0
1.4549633 -2.0572014 -0.58172351 20 1
1.4226131 -2.024925 -0.6630944 19 0
1.4444143 -2.0574827 -0.58037376 23 1
1.4166414 -2.0314634 -0.66361207 20 0
1.4375834 -2.0622613 -0.58037376 26 1
1.4632751 -2.1006794 -0.49762988 1 2
1.4153959 -2.044091 -0.66620022 22 0
1.4270495 -2.0624592 -0.57902408 41 1
1.4361987 -2.0764563 -0.49076074 2 2
1.4038752 -2.0426512 -0.66412973 23 0
1.4209447 -2.0690346 -0.57947397 43 1
1.4578316 -2.1235392 -0.50068283 1 2
1.4032683 -2.0571144 -0.66723549 22 0
1.4170066 -2.0788121 -0.58082366 24 1
1.3852484 -2.0460031 -0.66205913 22 0
1.4141096 -2.0902021 -0.5826233 19 1
1.3770207 -2.0492227 -0.66154152 20 0
1.4122365 -2.103215 -0.58487278 13 1
