# .PCD v0.7 - Point Cloud Data file format
VERSION 0.7
FIELDS x y z intensity ring
SIZE 4 4 4 4 2
TYPE F F F F U
COUNT 1 1 1 1 1
WIDTH 60
HEIGHT 1
VIEWPOINT 0 0 0 1 0 0 0
POINTS 60
DATA ascii
1.7315456 -1.4856874 -0.36136368 1 3
1.7236193 -1.4888386 -0.36073789 6 3
1.7246354 -1.4997312 -0.36198941 15 3
1.7176411 -1.5047402 -0.36167651 22 3
1.7094156 -1.5081133 -0.36105078 28 3
1.7044051 -1.5137737 -0.36105078 33 3
1.7035277 -1.5236647 -0.36198941 21 3
1.6984657 -1.5293055 -0.36198941 11 3
1.6931171 -1.5352248 -0.36198941 7 3
1.7023351 -1.5544454 -0.36511809 1 3
1.7737087 -1.4564223 -0.61495411 3 0
1.734373 -1.4342884 -0.60304838 5 0
1.7293559 -1.4403337 -0.60304838 5 0
1.7260503 -1.4473017 -0.60356599 7 0
1.7271463 -1.4580023 -0.6056366 9 0
1.7283338 -1.4600382 -0.52233636 2 1
1.7100179 -1.4543102 -0.6014955 11 0
1.7232267 -1.4660623 -0.52233636 7 1
1.6975948 -1.4539871 -0.59890729 15 0
1.7163624 -1.4711003 -0.52188647 10 1
1.6839855 -1.4520392 -0.59580147 18 0
1.7085236 -1.4742378 -0.52098668 13 1
1.6820787 -1.4601481 -0.59683669 22 0
1.6889136 -1.4671155 -0.51648766 21 1
1.6723534 -1.4624885 -0.59528387 24 0
1.6852489 -1.4742851 -0.51693755 27 1
1.7046679 -1.4923241 -0.44038719 1 2
1.6788361 -1.4785316 -0.59942496 26 0
1.6798341 -1.4804521 -0.51693755 34 1
1.7347924 -1.529425 -0.44954604 1 2
1.6592116 -1.4715642 -0.59424853 28 0
1.6792887 -1.4898943 -0.51828724 47 1
1.6883357 -1.4989744 -0.43886071 1 2
1.6543226 -1.4770582 -0.59424853 36 0
1.6740777 -1.495747 -0.51828724 74 1
1.7009211 -1.5202649 -0.44344014 1 2
1.65203 -1.4854075 -0.59528387 43 0
1.6546197 -1.4882581 -0.51378828 44 1
1.6839304 -1.5156854 -0.44038719 1 2
1.652824 -1.496063 -0.59735435 30 0
1.6609693 -1.5044909 -0.51738745 23 1
1.6490196 -1.5031248 -0.59787202 23 0
1.6571472 -1.5115927 -0.51783735 18 1
1.6366467 -1.5023401 -0.59528387 20 0
1.6633418 -1.5279146 -0.52143657 13 1
1.6356481 -1.5119777 -0.59683669 18 0
1.6582659 -1.533422 -0.52143657 9 1
1.6376969 -1.5239737 -0.59942496 15 0
1.6500509 -1.5365449 -0.52053678 7 1
1.6323671 -1.5296811 -0.59942496 12 0
1.6517848 -1.5489606 -0.52278626 4 1
1.6382576 -1.5459766 -0.60356599 9 0
1.6146461 -1.5343858 -0.59683669 8 0
1.6193209 -1.5490797 -0.60046023 7 0
1.6180778 -1.5587437 -0.60201317 6 0
1.6103985 -1.5611299 -0.60097784 5 0
1.6157229 -1.5778196 -0.60511893 5 0
1.6294894 -1.6024133 -0.6123659 4 0
1.8096149 -1.4643515 -0.62375391 2 0
1.7732968 -1.44472 -0.61288351 3 0
