# .PCD v0.7 - Point Cloud Data file format
VERSION 0.7
FIELDS x y z intensity ring
SIZE 4 4 4 4 2
TYPE F F F F U
COUNT 1 1 1 1 1
WIDTH 51
HEIGHT 1
VIEWPOINT 0 0 0 1 0 0 0
POINTS 51
DATA ascii
1.5700327 -2.1040606 -0.41580287 1 3
1.5372614 -2.0767314 -0.40923262 3 3
1.5420662 -2.0977337 -0.41236129 14 3
1.5351014 -2.1028359 -0.41236129 27 3
1.5323883 -2.1145797 -0.41361275 34 3
1.5088482 -2.097466 -0.40923262 27 3
1.5045934 -2.1078053 -0.41017124 12 3
1.4938004 -2.1082094 -0.40923262 5 3
1.6220344 -2.0790994 -0.70657599 3 0
1.5792778 -2.0389302 -0.69104689 4 0
1.5701519 -2.0410938 -0.69001162 5 0
1.5657204 -2.0493593 -0.69104689 6 0
1.5480502 -2.0409598 -0.68638813 7 0
1.5973556 -2.1074917 -0.6105172 1 1
1.5374302 -2.0417211 -0.68483526 8 0
1.552495 -2.0632257 -0.5961203 3 1
1.5221972 -2.0362444 -0.68121177 11 0
1.5429511 -2.06551 -0.59522051 8 1
1.515518 -2.0436256 -0.68172938 14 0
1.5268869 -2.0604594 -0.59207124 11 1
1.5075874 -2.0470848 -0.68121177 16 0
1.5154257 -2.0592332 -0.59027159 16 1
1.5449643 -2.1001396 -0.50678873 1 2
1.4973694 -2.0473948 -0.67965883 19 0
1.4982402 -2.0500872 -0.58622253 21 1
1.5217779 -2.0830574 -0.50144607 1 2
1.4822687 -2.041666 -0.6760354 21 0
1.5002298 -2.0679231 -0.5898217 33 1
1.4972086 -2.064517 -0.49572179 2 2
1.4717444 -2.0421259 -0.67448246 22 0
1.4918634 -2.0715661 -0.5893718 49 1
1.5014633 -2.085664 -0.49953794 3 2
1.4642497 -2.0475066 -0.67448246 25 0
1.4766899 -2.0656638 -0.58622253 56 1
1.4835384 -2.0767756 -0.49610341 2 2
1.467158 -2.0667827 -0.67914116 27 0
1.473619 -2.07742 -0.58802211 29 1
1.5387378 -2.1700234 -0.51709241 1 2
1.4577091 -2.0687332 -0.67810595 21 0
1.4697243 -2.0873315 -0.5893718 20 1
1.4471574 -2.0690596 -0.67655301 17 0
1.4702435 -2.1036301 -0.59252113 13 1
1.4399261 -2.0740986 -0.67655301 14 0
1.4677039 -2.114898 -0.59432071 10 1
1.4374261 -2.0852244 -0.67862362 12 0
1.4581015 -2.1167986 -0.59342092 7 1
1.4330454 -2.0952625 -0.68017644 11 0
1.4573028 -2.1315277 -0.5961203 3 1
1.430063 -2.1066453 -0.68224704 10 0
1.4162239 -2.1020117 -0.67914116 9 0
1.4131734 -2.1133661 -0.68121177 9 0
