# .PCD v0.7 - Point Cloud Data file format
VERSION 0.7
FIELDS x y z intensity ring
SIZE 4 4 4 4 2
TYPE F F F F U
COUNT 1 1 1 1 1
WIDTH 52
HEIGHT 1
VIEWPOINT 0 0 0 1 0 0 0
POINTS 52
DATA ascii
1.5489585 -1.9128045 -0.38983473 1 3
1.5261811 -1.8981863 -0.38576743 6 3
1.5220106 -1.9065896 -0.38639316 17 3
1.5214812 -1.9196314 -0.38795751 23 3
1.5086632 -1.9171686 -0.38639316 24 3
1.4946649 -1.9130837 -0.38451597 13 3
1.4940317 -1.9260938 -0.38608032 7 3
1.5138148 -1.9657285 -0.39296341 1 3
1.5067651 -1.8448454 -0.63824779 12 0
1.4990995 -1.8485935 -0.63773018 16 0
1.4941728 -1.8550588 -0.63824779 19 0
1.4943632 -1.8566213 -0.55023032 1 1
1.4876884 -1.8602631 -0.63824779 23 0
1.4927396 -1.8679156 -0.55202997 1 1
1.4667704 -1.8472897 -0.63203615 25 0
1.4849988 -1.8715883 -0.55158001 4 1
1.4591172 -1.8508813 -0.63151848 26 0
1.4760449 -1.8736989 -0.55068022 6 1
1.4927821 -1.8956256 -0.46900854 19 2
1.4538383 -1.8574845 -0.63203615 34 0
1.4610915 -1.8680947 -0.54753089 7 1
1.4509017 -1.8671244 -0.63358909 37 0
1.4581474 -1.8778011 -0.54888058 6 1
1.4502757 -1.8798255 -0.63617724 28 0
1.4575329 -1.8905962 -0.55113012 3 1
1.4440341 -1.8846245 -0.63617724 22 0
1.4583638 -1.904703 -0.55382955 1 1
1.4354366 -1.886328 -0.63514197 19 0
1.4567575 -1.9157333 -0.55562913 1 1
1.4343344 -1.8992845 -0.63773018 17 0
1.4500616 -1.9208068 -0.55562913 1 1
1.4334902 -1.912008 -0.64031839 14 0
1.4476854 -1.9323472 -0.55742878 1 1
1.4302676 -1.9216495 -0.64187121 10 0
1.429291 -1.9343988 -0.64445943 8 0
1.4262972 -1.9438007 -0.64601237 3 0
1.5365386 -1.8826401 -0.561028 1 1
1.5575805 -1.9091017 -0.47893062 1 2
1.5302871 -1.8877251 -0.561028 1 1
1.5237197 -1.8809655 -0.47053501 2 2
1.5273194 -1.898245 -0.47358796 7 2
1.5145574 -1.8958954 -0.47167987 11 2
1.5054902 -1.8980942 -0.47091663 14 2
1.4934115 -1.9101048 -0.47129822 18 2
1.4831233 -1.9106537 -0.47015342 9 2
1.4764451 -1.915819 -0.47015342 6 2
1.4736634 -1.9253815 -0.47129822 2 2
1.4910322 -1.961517 -0.47893062 1 2
1.4528366 -1.9937978 -0.66102386 2 0
1.5279226 -1.8574779 -0.64445943 8 0
1.597784 -1.9149998 -0.66827077 2 0
1.547954 -1.8684975 -0.65015346 3 0
