# .PCD v0.7 - Point Cloud Data file format
VERSION 0.7
FIELDS x y z intensity ring
SIZE 4 4 4 4 2
TYPE F F F F U
COUNT 1 1 1 1 1
WIDTH 54
HEIGHT 1
VIEWPOINT 0 0 0 1 0 0 0
POINTS 54
DATA ascii
1.6360008 -1.801728 -0.3854546 3 3
1.6320313 -1.8106468 -0.38608032 11 3
1.6184272 -1.8069361 -0.38420308 22 3
1.6137393 -1.8137691 -0.38451597 25 3
1.6064075 -1.8176302 -0.38420308 32 3
1.6026591 -1.8261958 -0.38482881 32 3
1.6040612 -1.8407147 -0.38670605 17 3
1.5863129 -1.8325819 -0.38389024 9 3
1.5824816 -1.8411043 -0.38451597 5 3
1.4949687 -1.8245447 -0.63203615 4 0
1.6530168 -1.7069726 -0.63669485 3 0
1.6320186 -1.7084064 -0.63307142 7 0
1.6313632 -1.7196991 -0.63514197 7 0
1.6227009 -1.7225708 -0.6341067 8 0
1.6113994 -1.7225814 -0.63203615 9 0
1.5935433 -1.7154572 -0.62737739 10 0
1.6588882 -1.7864264 -0.56282759 3 1
1.5904661 -1.7235717 -0.62841266 11 0
1.6315054 -1.7692844 -0.55562913 7 1
1.5828335 -1.7279649 -0.62789506 13 0
1.6147914 -1.7634709 -0.55202997 10 1
1.6609422 -1.8164153 -0.38983473 1 3
1.578092 -1.7349086 -0.62841266 15 0
1.6122491 -1.7737036 -0.5533796 13 1
1.5613652 -1.7292103 -0.62427157 16 0
1.6008252 -1.7735341 -0.55158001 16 1
1.553345 -1.7312311 -0.6232363 19 0
1.5910324 -1.77448 -0.55023032 25 1
1.6431915 -1.8332968 -0.478549 1 2
1.5437392 -1.732046 -0.62168342 22 0
1.5760666 -1.7695597 -0.54708099 36 1
1.6371028 -1.8387357 -0.478549 1 2
1.5405481 -1.7400486 -0.62271863 22 0
1.5676072 -1.7718576 -0.5461812 40 1
1.6049838 -1.8147423 -0.47091663 1 2
1.5331892 -1.7439646 -0.62220097 24 0
1.5614127 -1.7773188 -0.5461812 78 1
1.5779115 -1.7967312 -0.46481073 2 2
1.5245516 -1.746395 -0.62116575 24 0
1.5564802 -1.7842265 -0.5466311 70 1
1.5922755 -1.8259029 -0.47091663 1 2
1.5197116 -1.753166 -0.62168342 22 0
1.5620406 -1.8026332 -0.55068022 27 1
1.5151498 -1.7596596 -0.62220097 19 0
1.5506545 -1.8021659 -0.54888058 19 1
1.5127647 -1.769343 -0.62375391 18 0
1.5494179 -1.8134941 -0.55068022 13 1
1.5178317 -1.7878672 -0.62841266 15 0
1.5455995 -1.8218635 -0.55158001 11 1
1.5028658 -1.7828149 -0.62478918 13 0
1.5442524 -1.8332092 -0.5533796 9 1
1.5028332 -1.7954571 -0.62737739 9 0
1.5553479 -1.8595157 -0.55967826 6 1
1.5650333 -1.8844222 -0.56552702 2 1
