# .PCD v0.7 - Point Cloud Data file format
VERSION 0.7
FIELDS x y z intensity ring
SIZE 4 4 4 4 2
TYPE F F F F U
COUNT 1 1 1 1 1
WIDTH 49
HEIGHT 1
VIEWPOINT 0 0 0 1 0 0 0
POINTS 49
DATA ascii
1.7072114 -2.0947404 -0.42800474 1 3
1.6824925 -2.0791888 -0.4236246 5 3
1.6805385 -2.0909154 -0.42487606 16 3
1.6683011 -2.0905931 -0.4236246 24 3
1.6597667 -2.0948553 -0.42331171 34 3
1.6471933 -2.0947137 -0.42206025 25 3
1.6471649 -2.1097927 -0.42393744 10 3
1.6470517 -2.124897 -0.42581466 3 3
1.6383944 -2.0067239 -0.69415271 19 0
1.6741856 -2.0520227 -0.611417 9 1
1.6325961 -2.013931 -0.69467032 20 0
1.6584259 -2.0472546 -0.60826772 13 1
1.6259086 -2.0193341 -0.69467032 21 0
1.6479629 -2.048188 -0.60691798 20 1
1.6200564 -2.0265062 -0.69518799 23 0
1.638371 -2.0508828 -0.60601819 27 1
1.6832904 -2.1078668 -0.52434313 1 2
1.5997614 -2.0155044 -0.68949395 24 0
1.6360458 -2.0626965 -0.60781777 38 1
1.6515275 -2.082962 -0.51671082 1 2
1.591168 -2.0198367 -0.68897635 25 0
1.6288357 -2.0683947 -0.60781777 51 1
1.643882 -2.0890012 -0.51671082 2 2
1.5888684 -2.0314653 -0.69104689 25 0
1.6152437 -2.0666738 -0.60556829 48 1
1.6607541 -2.125668 -0.52434313 1 2
1.5805829 -2.0354733 -0.69052929 26 0
1.6127983 -2.0784578 -0.60736787 23 1
1.5793656 -2.0486281 -0.69311744 25 0
1.6091011 -2.0887063 -0.60871756 17 1
1.5686824 -2.0495262 -0.6915645 24 0
1.6009818 -2.092483 -0.60826772 13 1
1.5630465 -2.0562549 -0.69208211 22 0
1.6019191 -2.1089215 -0.611417 9 1
1.5558592 -2.0616984 -0.69208211 22 0
1.594548 -2.1145003 -0.611417 7 1
1.5590776 -2.0810318 -0.69674093 20 0
1.5965003 -2.1325336 -0.61501622 2 1
1.5529569 -2.0880113 -0.69725859 18 0
1.7619928 -2.0391288 -0.72210521 2 0
1.7494764 -2.0397077 -0.7200346 2 0
1.7185466 -2.0178578 -0.71019953 3 0
1.690286 -1.9987677 -0.70139962 6 0
1.6820565 -2.0031762 -0.70088202 9 0
1.6762909 -2.0105193 -0.70139962 12 0
1.6671501 -2.0130913 -0.70036435 14 0
1.7133191 -2.0703113 -0.62041503 1 1
1.6490703 -2.0054691 -0.69570565 16 0
1.6776266 -2.0416493 -0.61006731 4 1
