# .PCD v0.7 - Point Cloud Data file format
VERSION 0.7
FIELDS x y z intensity ring
SIZE 4 4 4 4 2
TYPE F F F F U
COUNT 1 1 1 1 1
WIDTH 51
HEIGHT 1
VIEWPOINT 0 0 0 1 0 0 0
POINTS 51
DATA ascii
1.6907275 -1.7941566 -0.39046046 1 3
1.6844546 -1.8000473 -0.39046046 7 3
1.6821951 -1.8102573 -0.39139909 18 3
1.6624695 -1.8016011 -0.38827038 22 3
1.6508325 -1.8015676 -0.38701892 26 3
1.6471926 -1.8102411 -0.38764465 34 3
1.6474856 -1.8233082 -0.389209 21 3
1.6440691 -1.8317016 -0.38983473 11 3
1.6300983 -1.8282968 -0.38795751 7 3
1.6312414 -1.8431345 -0.38983473 1 3
1.6734428 -1.7005312 -0.63928306 5 0
1.6674966 -1.7063624 -0.63928306 7 0
1.6642209 -1.7149454 -0.64031839 7 0
1.6475004 -1.7096157 -0.63617724 8 0
1.7535378 -1.8202865 -0.58352309 2 1
1.6404861 -1.7136741 -0.63565958 9 0
1.6865541 -1.763029 -0.56327748 6 1
1.6291702 -1.7137895 -0.63358909 10 0
1.6683102 -1.7561896 -0.55922836 9 1
1.6258303 -1.7222754 -0.6346243 12 0
1.6594952 -1.7591672 -0.55832857 12 1
1.6211298 -1.7293495 -0.63514197 13 0
1.6466833 -1.7578382 -0.55607903 15 1
1.604553 -1.7236857 -0.63100088 14 0
1.6378827 -1.7607219 -0.55517924 21 1
1.5906583 -1.7207644 -0.62789506 18 0
1.642305 -1.7778803 -0.55877846 34 1
1.6715389 -1.8101612 -0.47893062 1 2
1.591174 -1.7334223 -0.63048321 20 0
1.6176469 -1.7634969 -0.5524798 40 1
1.6652101 -1.815985 -0.47893062 1 2
1.5864149 -1.7403936 -0.63100088 22 0
1.6101692 -1.7676922 -0.55202997 56 1
1.6429994 -1.8043671 -0.47435117 1 2
1.5777372 -1.7430562 -0.62996554 24 0
1.6026815 -1.7718569 -0.55158001 97 1
1.6287906 -1.8013538 -0.47206149 1 2
1.566782 -1.7425323 -0.62789506 22 0
1.6085191 -1.7902076 -0.55562913 42 1
1.6464221 -1.8330357 -0.47893062 1 2
1.5609947 -1.7477185 -0.62789506 18 0
1.6103594 -1.8042552 -0.55832857 20 1
1.5584234 -1.7577647 -0.62944794 16 0
1.5924187 -1.7967401 -0.55427945 15 1
1.5612139 -1.7733438 -0.63307142 14 0
1.5935457 -1.811343 -0.55697882 12 1
1.5565965 -1.7799655 -0.63358909 11 0
1.593942 -1.8239543 -0.55922836 9 1
1.5481514 -1.7822006 -0.63255376 9 0
1.5955496 -1.8380598 -0.5619278 7 1
1.6078829 -1.86604 -0.56867629 4 1
