# .PCD v0.7 - Point Cloud Data file format
VERSION 0.7
FIELDS x y z intensity ring
SIZE 4 4 4 4 2
TYPE F F F F U
COUNT 1 1 1 1 1
WIDTH 55
HEIGHT 1
VIEWPOINT 0 0 0 1 0 0 0
POINTS 55
DATA ascii
1.3659815 -2.0451083 -0.38952184 3 3
1.3544687 -2.0432782 -0.38827038 11 3
1.3451567 -2.044693 -0.38764465 23 3
1.3380111 -2.0493762 -0.38764465 27 3
1.3279847 -2.0488291 -0.38670605 39 3
1.3985445 -2.1593409 -0.31588537 1 4
1.3240305 -2.0584362 -0.38764465 45 3
1.3157744 -2.0613801 -0.38733178 23 3
1.3106849 -2.0692983 -0.38795751 12 3
1.3003002 -2.0688434 -0.38701892 7 3
1.3056146 -2.093483 -0.39077336 1 3
1.3778806 -2.0466425 -0.39077336 1 3
1.3049921 -1.9649148 -0.63203615 16 0
1.3426477 -2.0231447 -0.56057805 16 1
1.2991884 -1.9710712 -0.63255376 19 0
1.3237867 -2.0099168 -0.55562913 19 1
1.2954729 -1.9804441 -0.6341067 22 0
1.3114316 -2.0063694 -0.5533796 23 1
1.3466188 -2.0609882 -0.478549 1 2
1.2843443 -1.9784726 -0.63203615 22 0
1.3090143 -2.0172465 -0.55517924 26 1
1.3394166 -2.0656762 -0.478549 1 2
1.2714975 -1.9729776 -0.62893027 23 0
1.3019649 -2.0218034 -0.55517924 32 1
1.317682 -2.0469952 -0.47320631 1 2
1.2666845 -1.980659 -0.62996554 23 0
1.2990968 -2.0329041 -0.55697882 27 1
1.3147563 -2.0582006 -0.47473282 1 2
1.2639035 -1.9915929 -0.63203615 22 0
1.2888618 -2.0324891 -0.55562913 21 1
1.2600322 -2.0008969 -0.63358909 19 0
1.2827973 -2.038625 -0.55607903 17 1
1.2591822 -2.0151129 -0.63669485 16 0
1.2798016 -2.0497024 -0.55787861 14 1
1.2450148 -2.0080028 -0.63307142 13 0
1.2787969 -2.0640967 -0.56057805 11 1
1.2390102 -2.0139821 -0.63358909 11 0
1.2756661 -2.0751886 -0.56237763 8 1
1.2420377 -2.0347841 -0.63876545 9 0
1.277913 -2.0943792 -0.56642681 7 1
1.2382863 -2.0438485 -0.64031839 8 0
1.2746313 -2.1054952 -0.5682264 3 1
1.2311443 -2.0481584 -0.64031839 6 0
1.3838396 -1.9624447 -0.64342415 3 0
1.3722075 -1.9611721 -0.64135361 3 0
1.3620477 -1.9611899 -0.63980073 4 0
1.3486149 -1.956389 -0.63669485 6 0
1.3464844 -1.9672275 -0.63876545 8 0
1.4004679 -2.0476308 -0.57272542 2 1
1.3385237 -1.9703172 -0.63824779 9 0
1.367395 -2.0135722 -0.5619278 7 1
1.3298219 -1.971542 -0.63721251 11 0
1.3560014 -2.011869 -0.56012815 9 1
1.317215 -1.9683751 -0.6346243 14 0
1.3489704 -2.0165901 -0.56012815 12 1
