# .PCD v0.7 - Point Cloud Data file format
VERSION 0.7
FIELDS x y z intensity ring
SIZE 4 4 4 4 2
TYPE F F F F U
COUNT 1 1 1 1 1
WIDTH 58
HEIGHT 1
VIEWPOINT 0 0 0 1 0 0 0
POINTS 58
DATA ascii
1.6146888 -1.7863845 -0.38138729 21 3
1.6084434 -1.7920099 -0.38138729 11 3
1.6021782 -1.7976134 -0.38138729 7 3
1.6407856 -1.6784425 -0.62893027 8 0
1.6349167 -1.6841596 -0.62893027 9 0
1.6303687 -1.6912475 -0.62944794 9 0
1.6191115 -1.6913459 -0.62737739 11 0
1.6145289 -1.6983877 -0.62789506 13 0
1.5966556 -1.6913701 -0.6232363 16 0
1.5894206 -1.6955236 -0.62271863 18 0
1.5874413 -1.7053035 -0.62427157 19 0
1.5762335 -1.7051597 -0.62220097 21 0
1.5663526 -1.7063819 -0.62064809 22 0
1.5567806 -1.7072843 -0.61909521 24 0
1.5508115 -1.7127082 -0.61909521 24 0
1.5474072 -1.7209842 -0.62013048 24 0
1.5478234 -1.7335802 -0.62271863 22 0
1.5456074 -1.7433093 -0.62427157 19 0
1.5356829 -1.7443438 -0.62271863 17 0
1.5295848 -1.7496936 -0.62271863 15 0
1.5297998 -1.7623166 -0.62530684 11 0
1.5337293 -1.7793522 -0.62944794 9 0
1.5087594 -1.7752956 -0.62427157 7 0
1.5066025 -1.7847177 -0.62582451 4 0
1.5043994 -1.794145 -0.62737739 3 0
1.6612477 -1.6881387 -0.6346243 7 0
1.699458 -1.7641482 -0.56552702 2 1
1.6623065 -1.7376819 -0.55517924 6 1
1.6522043 -1.7392353 -0.55382955 9 1
1.6725044 -1.7624518 -0.38482881 1 3
1.639437 -1.7379042 -0.55158001 12 1
1.6771799 -1.7797803 -0.38733178 1 3
1.6306962 -1.7407719 -0.55068022 15 1
1.6547607 -1.7683158 -0.38357735 8 3
1.6086822 -1.7293314 -0.54528135 20 1
1.6512674 -1.7769752 -0.38420308 19 3
1.6052804 -1.7377993 -0.5461812 31 1
1.6715389 -1.8101612 -0.47893062 1 2
1.6450543 -1.7827284 -0.38420308 24 3
1.5968738 -1.7402412 -0.54528135 37 1
1.6280582 -1.7754691 -0.46824533 1 2
1.6404686 -1.7896299 -0.38451597 28 3
1.5973519 -1.7530068 -0.54753089 57 1
1.6010088 -1.7576357 -0.46213943 2 2
1.6315521 -1.7924238 -0.38389024 36 3
1.5886081 -1.7556819 -0.5466311 94 1
1.6106672 -1.7806855 -0.46671882 1 2
1.5824702 -1.7612165 -0.5466311 40 1
1.6464221 -1.8330357 -0.47893062 1 2
1.5763127 -1.7667296 -0.5466311 20 1
1.5778899 -1.780973 -0.54933053 15 1
1.6194589 -1.8298216 -0.38701892 1 3
1.5780994 -1.7937856 -0.55158001 12 1
1.5782386 -1.8066213 -0.55382955 9 1
1.5770305 -1.8180076 -0.55562913 7 1
1.5795777 -1.833837 -0.55877846 4 1
1.5312773 -1.7890983 -0.63100088 8 0
1.5064642 -1.8100408 -0.63100088 3 0
