# .PCD v0.7 - Point Cloud Data file format
VERSION 0.7
FIELDS x y z intensity ring
SIZE 4 4 4 4 2
TYPE F F F F U
COUNT 1 1 1 1 1
WIDTH 52
HEIGHT 1
VIEWPOINT 0 0 0 1 0 0 0
POINTS 52
DATA ascii
1.6768801 -1.788196 -0.38827038 3 3
1.6749803 -1.7980831 -0.389209 11 3
1.6649835 -1.7992779 -0.38827038 21 3
1.664039 -1.810897 -0.38952184 24 3
1.648387 -1.8064802 -0.38733178 30 3
1.6407452 -1.8107595 -0.38701892 27 3
1.6396993 -1.8223494 -0.38827038 14 3
1.6382725 -1.8342402 -0.38952184 9 3
1.6397243 -1.8488148 -0.39139909 3 3
1.6755192 -1.6984855 -0.63928306 5 0
1.6641725 -1.6988039 -0.63721251 7 0
1.6582326 -1.7046025 -0.63721251 7 0
1.6525706 -1.7100919 -0.63721251 8 0
1.650304 -1.7203199 -0.63876545 9 0
1.6873578 -1.7595605 -0.56282759 3 1
1.633629 -1.7148799 -0.6346243 10 0
1.675523 -1.7600875 -0.561028 8 1
1.6170121 -1.7093446 -0.63048321 12 0
1.6680301 -1.7645092 -0.56057805 11 1
1.7034554 -1.8038745 -0.39296341 1 3
1.6123585 -1.7163867 -0.63100088 13 0
1.6498569 -1.7575338 -0.55652899 13 1
1.6132479 -1.7287861 -0.63358909 15 0
1.6387035 -1.7572943 -0.55472934 18 1
1.6061927 -1.7327095 -0.63307142 18 0
1.6288941 -1.7584299 -0.5533796 26 1
1.6740648 -1.8078256 -0.47893062 1 2
1.5831258 -1.7198281 -0.62634212 21 0
1.6227461 -1.7641051 -0.5533796 40 1
1.6677442 -1.813658 -0.47893062 1 2
1.5758094 -1.723918 -0.62582451 22 0
1.6205212 -1.7740753 -0.55472934 45 1
1.6402218 -1.796272 -0.47282472 1 2
1.5710806 -1.7308385 -0.62634212 24 0
1.605154 -1.7696172 -0.55158001 86 1
1.6365793 -1.8048954 -0.47358796 2 2
1.5740832 -1.7463566 -0.62996554 24 0
1.5963587 -1.7723136 -0.55068022 67 1
1.6486603 -1.831023 -0.47893062 1 2
1.56896 -1.7535541 -0.63048321 20 0
1.5979571 -1.7865902 -0.5533796 25 1
1.5538477 -1.7489108 -0.62685978 19 0
1.6056304 -1.8084649 -0.55832857 17 1
1.5515677 -1.7586699 -0.62841266 16 0
1.6022023 -1.8167026 -0.55922836 12 1
1.5520934 -1.7710699 -0.63100088 13 0
1.5945674 -1.8208182 -0.55877846 10 1
1.5497062 -1.7808489 -0.63255376 10 0
1.5907594 -1.8293141 -0.55967826 8 1
1.5485327 -1.7920945 -0.6346243 9 0
1.5996474 -1.8525554 -0.56507707 6 1
1.6502512 -1.9247011 -0.58532268 2 1
