# .PCD v0.7 - Point Cloud Data file format
VERSION 0.7
FIELDS x y z intensity ring
SIZE 4 4 4 4 2
TYPE F F F F U
COUNT 1 1 1 1 1
WIDTH 60
HEIGHT 1
VIEWPOINT 0 0 0 1 0 0 0
POINTS 60
DATA ascii
2.4292638 1.0057386 -0.4164286 27 3
2.4345875 0.99800134 -0.41674146 39 3
2.4362266 0.9887535 -0.4164286 59 3
2.4488275 0.9839263 -0.41799295 50 3
2.4412344 0.97099125 -0.41611573 29 3
2.4501224 0.96463645 -0.41705433 10 3
2.4567599 1.037271 -0.42237309 1 3
2.4220934 1.0126877 -0.41580287 5 3
2.3515022 0.96634007 -0.68121177 32 0
2.3814132 0.97766042 -0.59432071 56 1
2.4229336 0.99421203 -0.50907844 72 2
2.3602288 0.96031058 -0.68276465 35 0
2.3866167 0.97007489 -0.59477061 120 1
2.4118381 0.97983736 -0.50602549 70 2
2.3474393 0.94556904 -0.67810595 32 0
2.3972197 0.96464866 -0.59657025 92 1
2.4134221 0.97067922 -0.50564384 66 2
2.35252 0.93808526 -0.67862362 28 0
2.4060037 0.9584378 -0.59791994 43 1
2.4259155 0.96588045 -0.50755197 61 2
2.3611712 0.93199492 -0.68017644 28 0
2.4038954 0.94789052 -0.59657025 35 1
2.4347522 0.95956552 -0.50869679 55 2
2.3680093 0.9251526 -0.68121177 25 0
2.403559 0.9380759 -0.59567046 27 1
2.4490612 0.95534104 -0.51098651 40 2
2.3730252 0.91757941 -0.68172938 25 0
2.4231796 0.9359991 -0.59971952 21 1
2.4487174 0.94537377 -0.51022327 13 2
2.3726056 0.90790892 -0.6806941 25 0
2.4373536 0.93171042 -0.60241896 12 1
2.3757601 0.89962202 -0.6806941 25 0
2.4843359 0.93974334 -0.61321658 3 1
2.3843131 0.89335632 -0.68224704 24 0
2.4037199 0.89107084 -0.68690574 23 0
2.4195118 0.8873316 -0.69052929 19 0
2.3735616 1.1037862 -0.70139962 8 0
2.3738906 1.0938777 -0.70036435 8 0
2.363636 1.0791652 -0.69622326 8 0
2.365629 1.0701112 -0.69570565 12 0
2.3534834 1.0547369 -0.69104689 19 0
2.3394947 1.0386757 -0.68587047 23 0
2.332495 1.0258381 -0.68276465 25 0
2.3289776 1.0146031 -0.6806941 25 0
2.4390368 1.0615369 -0.61411637 2 1
2.3378265 1.0087627 -0.68224704 26 0
2.3961997 1.0329586 -0.60241896 9 1
2.4430761 1.0526606 -0.51709241 1 2
2.3377805 0.99907821 -0.68121177 26 0
2.3944144 1.0222918 -0.60106927 20 1
2.4178443 1.0317976 -0.51098651 5 2
2.3341374 0.98789918 -0.67914116 26 0
2.3871987 1.0093744 -0.59836984 26 1
2.4141979 1.0202937 -0.50946003 23 2
2.3304451 0.97675902 -0.67707068 27 0
2.3871124 0.99953061 -0.59747005 36 1
2.4249887 1.0148928 -0.51098651 47 2
2.3463306 0.97380143 -0.6806941 30 0
2.3905866 0.9911924 -0.59747005 47 1
2.4285169 1.0064212 -0.51098651 60 2
