# .PCD v0.7 - Point Cloud Data file format
VERSION 0.7
FIELDS x y z intensity ring
SIZE 4 4 4 4 2
TYPE F F F F U
COUNT 1 1 1 1 1
WIDTH 50
HEIGHT 1
VIEWPOINT 0 0 0 1 0 0 0
POINTS 50
DATA ascii
2.2399497 1.0760897 -0.39358914 54 3
2.3193493 1.1132377 -0.31588537 1 4
2.2438786 1.0678731 -0.39358914 100 3
2.3054869 1.0962046 -0.31344795 1 4
2.3272562 1.0966122 -0.31588537 1 4
2.2038999 1.0692064 -0.56552702 46 1
2.198653 1.0576676 -0.56327748 50 1
2.2130697 1.0546324 -0.56597686 66 1
2.2185001 1.0477326 -0.56642681 57 1
2.2203784 1.0391567 -0.56597686 42 1
2.2239926 1.0313991 -0.56597686 38 1
2.1851032 1.0050353 -0.64445943 9 0
2.2258084 1.0228165 -0.56552702 31 1
2.1798089 0.99339563 -0.64187121 7 0
2.174459 0.98180717 -0.63928306 5 0
2.184927 0.97736561 -0.64135361 4 0
2.314363 1.192487 -0.60106927 5 1
2.2402182 1.1448977 -0.58082366 7 1
2.2059579 1.1176934 -0.57092583 15 1
2.2365954 1.1327274 -0.4873262 1 2
2.201138 1.1056144 -0.56867629 23 1
2.2422905 1.1257936 -0.48770785 9 2
2.2084732 1.099661 -0.56957608 29 1
2.2198417 1.1048396 -0.48198354 25 2
2.2533932 1.120556 -0.39859506 1 3
2.2070556 1.0893581 -0.5682264 34 1
2.2289672 1.0996895 -0.4831284 46 2
2.2502036 1.1091903 -0.39734361 7 3
2.2124059 1.0828905 -0.56867629 40 1
2.2275012 1.0893141 -0.48198354 49 2
2.2396717 1.0947828 -0.39484066 27 3
2.2311018 1.0819209 -0.48198354 55 2
2.2434797 1.0869576 -0.39484066 50 3
2.2277863 1.070726 -0.48045707 60 2
2.229738 1.0620983 -0.48007545 72 2
2.2316561 1.053471 -0.47969386 66 2
2.2547395 1.063404 -0.39484066 65 3
2.2406552 1.0481697 -0.48083872 63 2
2.2566478 1.0546911 -0.39452776 41 3
2.2443006 1.0403414 -0.48083872 59 2
2.2621086 1.0476371 -0.39484066 27 3
2.2604065 1.0382375 -0.48351002 51 2
2.2801144 1.0463259 -0.39734361 11 3
2.2435534 1.0215013 -0.56912625 28 1
2.267591 1.0319667 -0.48427325 34 2
2.2559876 1.0176696 -0.57137573 22 1
2.2890759 1.0321163 -0.48808944 11 2
2.2684216 1.0137645 -0.57362527 13 1
2.249644 1.0049019 -0.47893062 1 2
2.3450055 1.0381842 -0.59207124 6 1
