# .PCD v0.7 - Point Cloud Data file format
VERSION 0.7
FIELDS x y z intensity ring
SIZE 4 4 4 4 2
TYPE F F F F U
COUNT 1 1 1 1 1
WIDTH 53
HEIGHT 1
VIEWPOINT 0 0 0 1 0 0 0
POINTS 53
DATA ascii
1.7353565 1.728707 -0.38795751 3 3
1.7399764 1.7212491 -0.38764465 16 3
1.7431555 1.7123969 -0.38701892 26 3
1.7491226 1.7063013 -0.38701892 28 3
1.7564864 1.7015598 -0.38733178 24 3
1.7709566 1.7036357 -0.389209 10 3
1.7768931 1.6974429 -0.389209 1 3
1.7519323 1.7568316 -0.39296341 1 3
1.6781602 1.6740638 -0.63514197 47 0
1.6889852 1.684276 -0.55068022 60 1
1.7244079 1.7183983 -0.47320631 37 2
1.6768402 1.6616917 -0.63255376 52 0
1.6962392 1.6797407 -0.55113012 62 1
1.7273052 1.7099093 -0.4724431 48 2
1.6840078 1.6571828 -0.63307142 61 0
1.6895868 1.6615126 -0.54708099 66 1
1.7318639 1.7024928 -0.47206149 55 2
1.6994542 1.6607454 -0.63669485 65 0
1.6925883 1.6528813 -0.5461812 68 1
1.7392013 1.697808 -0.4724431 69 2
1.7038543 1.6534582 -0.63617724 54 0
1.7053421 1.6537466 -0.54843074 62 1
1.7352496 1.6821616 -0.46977177 55 2
1.7068338 1.644819 -0.63514197 45 0
1.7153149 1.6518391 -0.54978037 58 1
1.7453545 1.6801785 -0.47091663 39 2
1.7139596 1.6401879 -0.63565958 39 0
1.7267046 1.6512284 -0.55158001 53 1
1.7554649 1.678147 -0.47206149 25 2
1.723876 1.6381869 -0.63721251 35 0
1.7381099 1.6505591 -0.5533796 45 1
1.7741271 1.6841735 -0.47549605 10 2
1.7366093 1.6387885 -0.63980073 28 0
1.7466971 1.6471555 -0.55427945 28 1
1.7521863 1.6419635 -0.64342415 22 0
1.7538588 1.6423799 -0.55472934 7 1
1.7593219 1.6371528 -0.64394182 11 0
1.8413454 1.7021227 -0.67189431 3 0
1.7368038 1.8193681 -0.6739648 3 0
1.6842363 1.7520154 -0.65118873 7 0
1.6728743 1.7280806 -0.64445943 17 0
1.6908184 1.7453991 -0.561028 1 1
1.668107 1.7111655 -0.64031839 25 0
1.6900964 1.7325122 -0.55877846 8 1
1.6740705 1.7053319 -0.64031839 30 0
1.6770149 1.707139 -0.5524798 26 1
1.7544805 1.7853727 -0.48656297 1 2
1.6759384 1.6953567 -0.63876545 37 0
1.6829642 1.7012744 -0.5524798 44 1
1.7275589 1.7457463 -0.47740412 4 2
1.673669 1.6812811 -0.63565958 43 0
1.6820147 1.6884874 -0.55023032 52 1
1.7170129 1.7230171 -0.47282472 19 2
