# .PCD v0.7 - Point Cloud Data file format
VERSION 0.7
FIELDS x y z intensity ring
SIZE 4 4 4 4 2
TYPE F F F F U
COUNT 1 1 1 1 1
WIDTH 71
HEIGHT 1
VIEWPOINT 0 0 0 1 0 0 0
POINTS 71
DATA ascii
1.5136266 2.0597994 -0.40485242 1 3
1.5067035 2.0354512 -0.40109801 3 3
1.5256082 2.046015 -0.40422669 16 3
1.5410457 2.051733 -0.40641677 43 3
1.5347335 2.0292811 -0.40297523 57 3
1.5370189 2.0176263 -0.40172374 83 3
1.5428505 2.0106814 -0.40141091 46 3
1.557107 2.0146616 -0.4032881 28 3
1.5674185 2.014164 -0.40422669 13 3
1.5858203 1.9299222 -0.6693061 22 0
1.6048636 1.9392583 -0.67448246 17 0
1.6153342 1.938096 -0.6760354 9 0
1.62051 1.931249 -0.67551774 9 0
1.629735 1.9285322 -0.67655301 8 0
1.6439699 1.9316583 -0.67965883 8 0
1.4220726 2.1003928 -0.67965883 8 0
1.423952 2.0874369 -0.67707068 9 0
1.4312303 2.0824535 -0.67707068 9 0
1.4381287 2.0776954 -0.67707068 9 0
1.4284389 2.0491433 -0.6693061 14 0
1.4289211 2.0346591 -0.66620022 22 0
1.4360151 2.0296586 -0.66620022 25 0
1.4352419 2.0136218 -0.66257679 26 0
1.439658 2.005713 -0.66154152 27 0
1.4398594 1.9912821 -0.6584357 32 0
1.4874201 2.0555458 -0.58577257 8 1
1.512674 2.0896778 -0.50144607 1 2
1.4445271 1.9831207 -0.65740043 37 0
1.4888473 2.0424671 -0.58352309 19 1
1.4991384 2.055831 -0.49457693 3 2
1.4525831 1.9796239 -0.65791804 40 0
1.4817741 2.0186677 -0.57812428 25 1
1.5039804 2.0474215 -0.49381369 13 2
1.4614353 1.9779037 -0.65895331 42 0
1.4841766 2.0072155 -0.57632464 30 1
1.5107613 2.042423 -0.49381369 42 2
1.4694846 1.9743397 -0.65947098 43 0
1.4935027 2.0051479 -0.57722449 41 1
1.506152 2.021394 -0.48999751 60 2
1.4694139 1.9599243 -0.6563651 47 0
1.501663 2.0014808 -0.57767433 50 1
1.5061272 2.0067034 -0.48770785 60 2
1.47159 1.9486165 -0.65429455 47 0
1.5106409 1.9996002 -0.57857412 60 1
1.5166752 2.0061314 -0.48885265 61 2
1.4827206 1.9498769 -0.6563651 47 0
1.4975494 1.9679518 -0.57092583 107 1
1.5185624 1.9948429 -0.4873262 70 2
1.4930418 1.9492909 -0.65791804 46 0
1.5055958 1.9642588 -0.57137573 94 1
1.5314891 1.9973201 -0.4892343 64 2
1.4998375 1.9440669 -0.65791804 44 0
1.5207781 1.9697899 -0.57452506 45 1
1.5372522 1.9904076 -0.48885265 60 2
1.500688 1.931192 -0.65532982 41 0
1.5368704 1.9770441 -0.57812428 40 1
1.5526294 1.9958764 -0.49152401 54 2
1.5070825 1.926206 -0.65532982 41 0
1.5461656 1.9747356 -0.57902408 33 1
1.5556073 1.9860803 -0.49037915 41 2
1.520972 1.9300371 -0.6584357 42 0
1.5530488 1.9693267 -0.57902408 24 1
1.5783379 2.0006762 -0.4953402 18 2
1.5301023 1.927742 -0.65947098 41 0
1.5623381 1.9669451 -0.57992387 17 1
1.5853124 1.995154 -0.4953402 1 2
1.5425162 1.9302036 -0.66205913 39 0
1.5883255 1.9861044 -0.58712232 7 1
1.542854 1.9175515 -0.65947098 32 0
1.5577151 1.9229335 -0.6630944 28 0
1.566861 1.920478 -0.66412973 25 0
