# .PCD v0.7 - Point Cloud Data file format
VERSION 0.7
FIELDS x y z intensity ring
SIZE 4 4 4 4 2
TYPE F F F F U
COUNT 1 1 1 1 1
WIDTH 55
HEIGHT 1
VIEWPOINT 0 0 0 1 0 0 0
POINTS 55
DATA ascii
1.5475593 2.0551741 -0.31588537 1 4
1.5187353 2.002311 -0.30857319 2 4
1.5160748 1.9843776 -0.30662328 10 4
1.5217805 1.9775015 -0.30637956 28 4
1.5347551 1.9800218 -0.30759826 39 4
1.5355489 1.9668293 -0.30637956 29 4
1.5427479 1.9611877 -0.30637956 12 4
1.5603359 1.9700657 -0.30857319 2 4
1.6012766 1.9404334 -0.58082366 6 1
1.6379337 1.9708015 -0.59162134 4 1
1.5029317 2.0900106 -0.59432071 3 1
1.4964987 2.065814 -0.5889219 5 1
1.4776335 2.0241137 -0.57857412 6 1
1.4577899 1.9830896 -0.5682264 13 1
1.476325 2.0068355 -0.48427325 1 2
1.4577448 1.9685926 -0.56552702 22 1
1.484141 2.0035057 -0.4846549 6 2
1.4669384 1.9666158 -0.56642681 30 1
1.4762067 1.9776006 -0.47969386 25 2
1.496655 2.0035367 -0.39609212 1 3
1.4706234 1.956553 -0.56507707 35 1
1.4819214 1.970866 -0.47931221 42 2
1.4965137 1.9888294 -0.39421493 7 3
1.48215 1.9576221 -0.56687671 40 1
1.4855778 1.9607271 -0.47816736 51 2
1.4930514 1.9691647 -0.39139909 28 3
1.4712478 1.9291933 -0.56012815 45 1
1.4908805 1.9542295 -0.47778577 60 2
1.4995737 1.9642023 -0.39139909 52 3
1.4744123 1.9194094 -0.55877846 50 1
1.4964963 1.947457 -0.47740412 70 2
1.5004005 1.9511257 -0.38983473 48 3
1.4858729 1.9204164 -0.56057805 64 1
1.4972771 1.9344583 -0.47549605 74 2
1.5084114 1.9474386 -0.39014763 87 3
1.4901711 1.9121442 -0.55967826 68 1
1.5019423 1.9258617 -0.47473282 76 2
1.5228313 1.9512399 -0.39202482 75 3
1.501984 1.9127998 -0.56147784 45 1
1.5122943 1.9252384 -0.47587767 68 2
1.5284122 1.94436 -0.39171195 48 3
1.50711 1.9062803 -0.561028 42 1
1.5238785 1.926106 -0.47740412 61 2
1.5299474 1.9330853 -0.39046046 32 3
1.5137554 1.9010075 -0.561028 36 1
1.5400418 1.9333279 -0.48045707 56 2
1.5489994 1.943179 -0.39358914 21 3
1.5252583 1.9017931 -0.56282759 31 1
1.53941 1.918752 -0.47816736 45 2
1.561956 1.9454623 -0.39515349 2 3
1.5404599 1.9070685 -0.56597686 25 1
1.5522684 1.9210014 -0.48007545 22 2
1.5569464 1.9137727 -0.56957608 19 1
1.5713565 1.9307988 -0.48389161 2 2
1.5660861 1.911342 -0.57047588 10 1
