# .PCD v0.7 - Point Cloud Data file format
VERSION 0.7
FIELDS x y z intensity ring
SIZE 4 4 4 4 2
TYPE F F F F U
COUNT 1 1 1 1 1
WIDTH 61
HEIGHT 1
VIEWPOINT 0 0 0 1 0 0 0
POINTS 61
DATA ascii
2.2116432 1.1809083 -0.30784199 55 4
2.2102847 1.1707796 -0.30711079 72 4
2.2018538 1.1569804 -0.3054046 45 4
2.2217233 1.1575429 -0.30759826 25 4
2.2222233 1.1479579 -0.30711079 4 4
2.2041681 1.2072486 -0.30857319 2 4
2.206625 1.1985992 -0.30832946 12 4
2.209255 1.1895628 -0.30808574 42 4
2.1812449 1.1656544 -0.39171195 68 3
2.1535125 1.1426346 -0.56282759 64 1
2.1714878 1.1516852 -0.47778577 82 2
2.1835546 1.1571087 -0.39139909 73 3
2.1624634 1.1382095 -0.56417727 52 1
2.1805069 1.1472207 -0.47893062 66 2
2.1838825 1.1480235 -0.39077336 59 3
2.1593163 1.1274238 -0.56237763 45 1
2.1947424 1.1454331 -0.4812203 51 2
2.1929326 1.1435148 -0.39171195 58 3
2.1615078 1.1189841 -0.5619278 42 1
2.1969836 1.1368634 -0.48083872 43 2
2.2039292 1.1394823 -0.39296341 51 3
2.1810038 1.1194414 -0.56597686 38 1
2.199192 1.1282907 -0.48045707 33 2
2.2219563 1.1389915 -0.39546639 30 3
2.190109 1.1144723 -0.56732661 33 1
2.2048664 1.1214988 -0.48083872 22 2
2.2400069 1.1383876 -0.39796934 5 3
2.2026849 1.1112098 -0.56957608 27 1
2.2368157 1.1279383 -0.48694456 10 2
2.2100365 1.1052568 -0.57047588 22 1
2.2173736 1.0992663 -0.57137573 10 1
2.2314992 1.0970662 -0.5740751 6 1
2.2370667 1.0901242 -0.57452506 6 1
2.240669 1.0827004 -0.57452506 5 1
2.2602534 1.0824471 -0.57857412 6 1
2.1601014 1.2744293 -0.57902408 5 1
2.1424537 1.254459 -0.57317531 6 1
2.148505 1.2479511 -0.57362527 7 1
2.1545362 1.2414171 -0.5740751 8 1
2.155473 1.2319542 -0.57317531 9 1
2.1529789 1.2205789 -0.57137573 16 1
2.1419394 1.2044591 -0.56732661 24 1
2.1940439 1.2332548 -0.4892343 4 2
2.2045798 1.2381644 -0.40047228 1 3
2.1548495 1.2013454 -0.56957608 31 1
2.1779699 1.213737 -0.4846549 15 2
2.1745856 1.2108564 -0.39421493 1 3
2.1485901 1.188534 -0.56687671 37 1
2.1682382 1.1989073 -0.48160195 25 2
2.1906919 1.2103258 -0.39640498 10 3
2.1576447 1.1842146 -0.5682264 41 1
2.1653168 1.1879337 -0.48007545 34 2
2.1825683 1.1964073 -0.39421493 39 3
2.1514962 1.1710855 -0.56552702 46 1
2.169656 1.1799899 -0.48007545 43 2
2.1730535 1.1808549 -0.39171195 57 3
2.1454835 1.1576401 -0.56282759 47 1
2.1720343 1.1714767 -0.47969386 55 2
2.1736844 1.1713874 -0.39108619 58 3
2.1460752 1.1483046 -0.5619278 58 1
2.1709163 1.1611104 -0.478549 63 2
