# .PCD v0.7 - Point Cloud Data file format
VERSION 0.7
FIELDS x y z intensity ring
SIZE 4 4 4 4 2
TYPE F F F F U
COUNT 1 1 1 1 1
WIDTH 77
HEIGHT 1
VIEWPOINT 0 0 0 1 0 0 0
POINTS 77
DATA ascii
1.7142717 1.7106858 -0.38357735 47 3
1.7132167 1.6977395 -0.38201302 74 3
1.7109789 1.6831367 -0.38013577 57 3
1.72279 1.6823746 -0.38138729 36 3
1.734324 1.6818517 -0.38263875 24 3
1.7515668 1.6867495 -0.3851417 6 3
1.7225459 1.7663908 -0.39077336 1 3
1.6940984 1.7251329 -0.38295162 3 3
1.7039764 1.7237197 -0.38389024 19 3
1.7071961 1.7149608 -0.38326448 35 3
1.641169 1.6400241 -0.62168342 36 0
1.6778638 1.6761084 -0.54753089 56 1
1.6895605 1.6866149 -0.46404752 74 2
1.6411138 1.6291289 -0.61961281 35 0
1.6767865 1.6633795 -0.54528135 94 1
1.6968322 1.6820885 -0.46442911 82 2
1.6525785 1.6285266 -0.62168342 35 0
1.6814839 1.6558549 -0.54483151 72 1
1.704385 1.6772356 -0.46481073 78 2
1.6626797 1.6265111 -0.6232363 32 0
1.6903291 1.652405 -0.54573131 48 1
1.675275 1.6274281 -0.62582451 31 0
1.7086707 1.6587112 -0.54978037 38 1
1.7146438 1.6639285 -0.46442911 60 2
1.6726037 1.6135223 -0.62271863 31 0
1.7116439 1.650032 -0.54888058 34 1
1.7218558 1.6592951 -0.46481073 51 2
1.6754347 1.6050025 -0.62168342 30 0
1.720209 1.6467419 -0.54978037 25 1
1.6894255 1.6071329 -0.62478918 28 0
1.7344208 1.6487837 -0.5524798 19 1
1.7006429 1.6065321 -0.62685978 29 0
1.7059615 1.6008832 -0.62685978 30 0
1.7101247 1.5936027 -0.62634212 27 0
1.7256029 1.5968076 -0.62996554 24 0
1.7425458 1.6012318 -0.6341067 22 0
1.7649684 1.6110729 -0.64031839 19 0
1.7172503 1.6781362 -0.46671882 70 2
1.7404021 1.6654923 -0.46824533 32 2
1.7490517 1.6621112 -0.46900854 5 2
1.7483796 1.6510513 -0.55517924 9 1
1.7863258 1.619174 -0.64601237 11 0
1.7847871 1.606467 -0.64342415 8 0
1.7961459 1.6053765 -0.64549476 8 0
1.8043493 1.6019759 -0.64653003 7 0
1.808759 1.594075 -0.64601237 7 0
1.8244894 1.5966568 -0.64963585 4 0
1.6213757 1.7607641 -0.64135361 12 0
1.620944 1.7480116 -0.63876545 20 0
1.6046206 1.7183399 -0.62996554 25 0
1.6036946 1.705971 -0.62737739 27 0
1.6083124 1.6989595 -0.62685978 30 0
1.6152697 1.6950155 -0.62737739 33 0
1.6171641 1.6851848 -0.62582451 36 0
1.6122968 1.6684165 -0.62168342 35 0
1.6594906 1.7160558 -0.55113012 22 1
1.617053 1.6611121 -0.62116575 32 0
1.6641116 1.7088561 -0.55068022 29 1
1.626899 1.6595955 -0.62271863 35 0
1.655352 1.6874431 -0.54573131 34 1
1.6313255 1.652531 -0.62220097 33 0
1.6636775 1.6847173 -0.5466311 43 1
1.6408814 1.6512238 -0.62375391 36 0
1.6668005 1.6761357 -0.54573131 45 1
1.6109364 1.8118935 -0.64963585 7 0
1.612097 1.8005017 -0.64756525 8 0
1.6115924 1.7879707 -0.64497709 9 0
1.6129397 1.7763314 -0.64290655 11 0
1.619131 1.77069 -0.64290655 9 0
1.6770581 1.7586248 -0.561028 3 1
1.6629403 1.731676 -0.55427945 11 1
1.6674696 1.7357862 -0.46786368 1 2
1.672153 1.7285441 -0.46748206 4 2
1.6825875 1.7266225 -0.46862692 23 2
1.6954801 1.7277443 -0.47053501 46 2
1.6987412 1.7190222 -0.46977177 66 2
1.6933553 1.7022449 -0.46671882 69 2
