# .PCD v0.7 - Point Cloud Data file format
VERSION 0.7
FIELDS x y z intensity ring
SIZE 4 4 4 4 2
TYPE F F F F U
COUNT 1 1 1 1 1
WIDTH 71
HEIGHT 1
VIEWPOINT 0 0 0 1 0 0 0
POINTS 71
DATA ascii
1.7433867 1.7234192 -0.38827038 1 3
1.7409335 1.7090205 -0.38639316 4 3
1.7582041 1.7139647 -0.38889611 19 3
1.7613382 1.7050686 -0.38827038 37 3
1.7573112 1.6893268 -0.38608032 47 3
1.7617681 1.6818185 -0.38576743 65 3
1.7644683 1.6732488 -0.3851417 47 3
1.7760512 1.672496 -0.38639316 31 3
1.7948636 1.6784297 -0.389209 13 3
1.6798195 1.6751359 -0.63565958 24 0
1.7199419 1.7139478 -0.56057805 23 1
1.7344433 1.7277973 -0.47587767 5 2
1.6925204 1.6760581 -0.63824779 25 0
1.7148324 1.6969682 -0.55697882 31 1
1.7390686 1.7203511 -0.47549605 24 2
1.6969829 1.6687858 -0.63773018 27 0
1.705456 1.6759475 -0.55202997 38 1
1.7436622 1.7128947 -0.47511441 40 2
1.7069445 1.6669008 -0.63928306 30 0
1.7154794 1.6740675 -0.5533796 48 1
1.7426045 1.6999427 -0.47320631 60 2
1.7044313 1.6528634 -0.63617724 35 0
1.7199136 1.6667128 -0.55292976 52 1
1.740067 1.6856539 -0.47091663 67 2
1.7060155 1.6428838 -0.6346243 39 0
1.7243172 1.6593472 -0.5524798 91 1
1.7487699 1.6822923 -0.47167987 74 2
1.717325 1.6422589 -0.63669485 43 0
1.7244632 1.647933 -0.55068022 100 1
1.7532122 1.6748209 -0.47129822 82 2
1.730051 1.6429062 -0.63928306 38 0
1.7355713 1.6475725 -0.5524798 64 1
1.7604717 1.6700425 -0.47167987 74 2
1.7340841 1.6358349 -0.63876545 32 0
1.7441483 1.6441771 -0.5533796 45 1
1.764571 1.6628493 -0.47129822 66 2
1.7327348 1.6231679 -0.63617724 30 0
1.7598354 1.6474017 -0.55652899 36 1
1.7717987 1.6580207 -0.47167987 57 2
1.739805 1.6184248 -0.63669485 28 0
1.7684301 1.6439018 -0.55742878 30 1
1.7862049 1.6598439 -0.47396958 45 2
1.7582148 1.6241398 -0.64135361 24 0
1.7741573 1.6377192 -0.55742878 22 1
1.804973 1.6655818 -0.47740412 15 2
1.7624502 1.6166862 -0.64083594 21 0
1.7841724 1.6354671 -0.55877846 12 1
1.8165662 1.6645761 -0.47893062 1 2
1.7737954 1.6157284 -0.64290655 19 0
1.7676834 1.5994685 -0.63876545 16 0
1.767508 1.5881232 -0.63669485 17 0
1.7845725 1.5922332 -0.64083594 17 0
1.8002417 1.5949612 -0.64445943 14 0
1.8246545 1.6052557 -0.65118873 11 0
1.8549788 1.6204842 -0.65998858 7 0
1.8515447 1.6859584 -0.57812428 4 1
1.8690971 1.6219203 -0.6630944 5 0
1.6743755 1.8012115 -0.65895331 8 0
1.6790191 1.7942392 -0.6584357 9 0
1.6759973 1.7785262 -0.65481222 8 0
1.6848552 1.7754669 -0.65584749 8 0
1.6707177 1.7489163 -0.64808291 11 0
1.6644561 1.7308344 -0.64342415 18 0
1.6597359 1.7139118 -0.63928306 23 0
1.6616628 1.7039582 -0.63773018 24 0
1.6689529 1.6995269 -0.63824779 23 0
1.6803093 1.699185 -0.64031839 24 0
1.7257531 1.7439215 -0.56642681 3 1
1.6725992 1.67962 -0.63514197 24 0
1.7139481 1.7199416 -0.56057805 11 1
1.7214718 1.7268887 -0.47396958 1 2
