# .PCD v0.7 - Point Cloud Data file format
VERSION 0.7
FIELDS x y z intensity ring
SIZE 4 4 4 4 2
TYPE F F F F U
COUNT 1 1 1 1 1
WIDTH 71
HEIGHT 1
VIEWPOINT 0 0 0 1 0 0 0
POINTS 71
DATA ascii
1.6823368 1.6811632 -0.37669426 52 3
1.6909996 1.6780629 -0.37731999 36 3
1.6982534 1.6735368 -0.37763283 22 3
1.7012608 1.6648358 -0.3770071 4 3
1.6823218 1.7530831 -0.38482881 1 3
1.6623493 1.7202113 -0.37888432 2 3
1.669722 1.7158133 -0.37919718 16 3
1.6770824 1.7113863 -0.37951005 39 3
1.6774964 1.6998973 -0.37825859 53 3
1.6848129 1.6954321 -0.37857145 78 3
1.6427163 1.6329982 -0.62064809 46 0
1.648407 1.6272535 -0.62064809 43 0
1.657653 1.6466948 -0.53943264 45 1
1.674467 1.6628189 -0.45870483 68 2
1.6800385 1.6573216 -0.54483151 40 1
1.6858531 1.6624773 -0.46023133 59 2
1.6664935 1.6336606 -0.62530684 39 0
1.6760684 1.6419015 -0.54168218 35 1
1.7042706 1.6689445 -0.46366587 48 2
1.6708013 1.6264863 -0.62478918 30 0
1.6859796 1.6401178 -0.54303187 25 1
1.7157156 1.6684607 -0.46519238 23 2
1.688969 1.6327291 -0.62944794 25 0
1.7001042 1.6423459 -0.54573131 18 1
1.7158805 1.6570058 -0.46366587 2 2
1.6862959 1.6187966 -0.62634212 21 0
1.7269216 1.6566366 -0.5524798 7 1
1.6989279 1.6195649 -0.62893027 14 0
1.7031685 1.6122961 -0.62841266 10 0
1.7172312 1.6142806 -0.63151848 9 0
1.7228559 1.608276 -0.63151848 10 0
1.7312919 1.6048802 -0.63255376 10 0
1.7610466 1.6210688 -0.64135361 8 0
1.7963524 1.6425964 -0.65222406 4 0
1.6139665 1.6614186 -0.62064809 42 0
1.6143531 1.6502506 -0.61857754 44 0
1.625527 1.6501098 -0.62064809 50 0
1.6312759 1.6444267 -0.62064809 57 0
1.6351326 1.6471641 -0.53583348 100 1
1.6032795 1.8083578 -0.64756525 7 0
1.6082941 1.8013104 -0.64704764 7 0
1.6016561 1.7813196 -0.64187121 7 0
1.5874232 1.7525288 -0.63358909 9 0
1.5795133 1.7310001 -0.62789506 14 0
1.5858469 1.7251997 -0.62789506 14 0
1.5889348 1.717096 -0.62685978 14 0
1.5946206 1.7118169 -0.62685978 14 0
1.5976449 1.7037014 -0.62582451 17 0
1.6708859 1.7805585 -0.56372738 3 1
1.5985726 1.6922166 -0.62375391 22 0
1.6315839 1.7265581 -0.54843074 9 1
1.6470407 1.7416964 -0.46595559 1 2
1.6018064 1.6838272 -0.62271863 25 0
1.6271516 1.7092751 -0.54483151 20 1
1.6449866 1.7274065 -0.46366587 4 2
1.6103467 1.681016 -0.62375391 30 0
1.6182736 1.6881108 -0.53988254 26 1
1.652365 1.7230713 -0.46404752 18 2
1.6135226 1.6726034 -0.62271863 35 0
1.6255105 1.6838535 -0.5403325 34 1
1.6597337 1.7187047 -0.46442911 49 2
1.6340953 1.6809633 -0.54123229 41 1
1.654773 1.7016413 -0.46137619 60 2
1.6440415 1.6794276 -0.54258198 49 1
1.6565822 1.6916461 -0.46023133 69 2
1.6375816 1.6611881 -0.53853285 62 1
1.6624776 1.6858529 -0.46023133 72 2
1.6697342 1.6814334 -0.46061292 78 2
1.6438333 1.645556 -0.6232363 55 0
1.6491389 1.6497151 -0.53853285 81 1
1.6630999 1.6631004 -0.45717838 72 2
