# .PCD v0.7 - Point Cloud Data file format
VERSION 0.7
FIELDS x y z intensity ring
SIZE 4 4 4 4 2
TYPE F F F F U
COUNT 1 1 1 1 1
WIDTH 51
HEIGHT 1
VIEWPOINT 0 0 0 1 0 0 0
POINTS 51
DATA ascii
1.5101289 1.7129054 -0.36167651 6 3
1.5227723 1.7043254 -0.36198941 9 3
1.5326757 1.7034053 -0.362928 7 3
1.4479399 1.7280365 -0.60408366 7 0
1.4984576 1.7876925 -0.53853285 2 1
1.4436967 1.7114124 -0.59994256 17 0
1.4342934 1.6990619 -0.51333833 2 1
1.4396561 1.6945841 -0.59580147 25 0
1.4503139 1.7059221 -0.51693755 9 1
1.4455621 1.6895487 -0.59580147 34 0
1.4625974 1.7082502 -0.51918709 31 1
1.4750673 1.7222078 -0.44076881 1 2
1.4476682 1.6801015 -0.59424853 39 0
1.4558253 1.6883762 -0.51468807 47 1
1.4797882 1.7155613 -0.44038719 6 2
1.4522576 1.6735793 -0.59373093 44 0
1.4565988 1.6773988 -0.51288843 60 1
1.4870546 1.7118678 -0.44076881 22 2
1.458091 1.6684994 -0.59373093 49 0
1.4560305 1.6649698 -0.51063895 62 1
1.4826802 1.6948452 -0.43771586 34 2
1.4963332 1.7092491 -0.35979933 1 3
1.4536958 1.6517981 -0.58958983 51 0
1.4656976 1.6642641 -0.51198864 66 1
1.4898847 1.6911327 -0.43809745 46 2
1.4607338 1.6481597 -0.5901075 59 0
1.4727917 1.6605952 -0.51243854 72 1
1.4944756 1.6844536 -0.43771586 64 2
1.5147878 1.7061462 -0.36136368 9 3
1.465904 1.6435629 -0.5901075 65 0
1.4676199 1.6443293 -0.50883931 72 1
1.4971448 1.6768217 -0.43695265 83 2
1.4729235 1.6398727 -0.59062505 54 0
1.4694424 1.6348487 -0.50748962 66 1
1.5082397 1.6774246 -0.4384791 49 2
1.482527 1.6390191 -0.59217799 48 0
1.482987 1.6383778 -0.51018906 60 1
1.5048623 1.661962 -0.43580776 35 2
1.529328 1.6877974 -0.36073789 2 3
1.4830353 1.6281217 -0.5901075 42 0
1.4978869 1.6432722 -0.51333833 55 1
1.5146226 1.6610514 -0.43695265 22 2
1.4952394 1.6300528 -0.59269565 38 0
1.5102018 1.6452127 -0.51558787 45 1
1.5350182 1.6716604 -0.4411504 8 2
1.5064478 1.6302372 -0.5947662 29 0
1.5119674 1.6356375 -0.51423812 26 1
1.5226579 1.6362823 -0.59890729 24 0
1.5245919 1.637216 -0.51648766 6 1
1.5362858 1.6394155 -0.60201317 12 0
1.6334852 1.730989 -0.63773018 3 0
