# .PCD v0.7 - Point Cloud Data file format
VERSION 0.7
FIELDS x y z intensity ring
SIZE 4 4 4 4 2
TYPE F F F F U
COUNT 1 1 1 1 1
WIDTH 54
HEIGHT 1
VIEWPOINT 0 0 0 1 0 0 0
POINTS 54
DATA ascii
1.846352 1.7447876 -0.40234947 1 3
1.8524315 1.7383316 -0.40234947 6 3
1.8700484 1.7426298 -0.40485242 30 3
1.8674215 1.7280411 -0.40297523 50 3
1.8690779 1.7175026 -0.40203664 61 3
1.8706845 1.7069728 -0.40109801 97 3
1.8734075 1.6981072 -0.40047228 51 3
1.8881322 1.6994869 -0.40234947 34 3
1.8911079 1.6902525 -0.40172374 22 3
1.904384 1.6901968 -0.4032881 5 3
1.7632419 1.6920699 -0.65481222 7 0
1.7607467 1.6779078 -0.6517064 9 0
1.7736077 1.6783919 -0.65429455 11 0
1.7847943 1.6777931 -0.6563651 17 0
1.7821674 1.663643 -0.65325934 20 0
1.7837124 1.6534733 -0.6517064 24 0
1.7923162 1.649853 -0.65274167 25 0
1.7994908 1.6448895 -0.65325934 26 0
1.8095127 1.6424938 -0.65481222 25 0
1.8077762 1.6300154 -0.65222406 24 0
1.8120153 1.622407 -0.6517064 22 0
1.823442 1.6212065 -0.65377688 18 0
1.8348835 1.6199455 -0.65584749 14 0
1.8416979 1.6151252 -0.6563651 9 0
1.8475814 1.7841878 -0.59297103 6 1
1.8270729 1.7521014 -0.58442289 15 1
1.8353207 1.7593945 -0.49419534 1 2
1.8176548 1.7309299 -0.57947397 23 1
1.8499835 1.7610989 -0.49648505 7 2
1.8191382 1.7208748 -0.57812428 27 1
1.8447049 1.7438424 -0.4934321 28 2
1.829394 1.7185183 -0.57947397 37 1
1.8447533 1.732339 -0.4919056 56 2
1.8325319 1.7094629 -0.57857412 40 1
1.8335596 1.7098215 -0.4873262 56 2
1.8356291 1.7004067 -0.57767433 48 1
1.843837 1.7074137 -0.48847106 65 2
1.8343819 1.6873926 -0.57542485 56 1
1.8454509 1.6969801 -0.4873262 66 2
1.8301896 1.6717787 -0.57227552 88 1
1.8586125 1.6971464 -0.4892343 70 2
1.8371662 1.6670102 -0.57272542 61 1
1.8572531 1.684055 -0.4873262 66 2
1.8531078 1.6697187 -0.57587475 44 1
1.867204 1.681828 -0.48847106 61 2
1.8618299 1.6658384 -0.57677454 39 1
1.8789163 1.6805358 -0.48999751 57 2
1.8647202 1.6567402 -0.57587475 35 1
1.9023852 1.6896118 -0.49457693 48 2
1.87897 1.6582847 -0.57857412 27 1
1.9126893 1.6868563 -0.49572179 28 2
1.8950061 1.6607069 -0.58172351 20 1
1.9197499 1.6817975 -0.49610341 5 2
1.9213727 1.671991 -0.58802211 10 1
