# .PCD v0.7 - Point Cloud Data file format
VERSION 0.7
FIELDS x y z intensity ring
SIZE 4 4 4 4 2
TYPE F F F F U
COUNT 1 1 1 1 1
WIDTH 64
HEIGHT 1
VIEWPOINT 0 0 0 1 0 0 0
POINTS 64
DATA ascii
1.8253055 1.7152756 -0.39671785 1 3
1.826949 1.7048513 -0.39577925 3 3
1.8354893 1.7014695 -0.39640498 18 3
1.8469344 1.7007253 -0.39765644 43 3
1.8368247 1.6796044 -0.39421493 55 3
1.8368261 1.667871 -0.39296341 83 3
1.8470387 1.6654172 -0.39390203 59 3
1.8616705 1.6668662 -0.39577925 42 3
1.8671882 1.660683 -0.39577925 25 3
1.874454 1.6554631 -0.39609212 9 3
1.7321179 1.6991798 -0.65015346 10 0
1.7446613 1.7001673 -0.65274167 17 0
1.7478087 1.6913805 -0.6517064 24 0
1.7523087 1.6839311 -0.65118873 26 0
1.7494996 1.6701068 -0.64808291 32 0
1.748019 1.6576499 -0.64549476 40 0
1.7554891 1.6525563 -0.64601237 43 0
1.7626586 1.6477373 -0.64653003 47 0
1.7971609 1.6788151 -0.5677765 37 1
1.7681134 1.6418825 -0.64653003 49 0
1.8012892 1.6715209 -0.56732661 43 1
1.7664481 1.6294614 -0.64394182 52 0
1.8068228 1.665538 -0.56732661 46 1
1.7635777 1.6154563 -0.64083594 53 0
1.812626 1.6592203 -0.56732661 52 1
1.7734938 1.6131898 -0.64238888 57 0
1.80687 1.6423972 -0.56372738 80 1
1.7834151 1.6108736 -0.64394182 55 0
1.811146 1.6347739 -0.56327748 64 1
1.8005321 1.6149582 -0.64808291 52 0
1.8182921 1.6297429 -0.56372738 46 1
1.7960602 1.5996685 -0.64445943 49 0
1.8338753 1.6327748 -0.56687671 39 1
1.7941206 1.5873038 -0.64187121 47 0
1.8454031 1.6315268 -0.56867629 35 1
1.812712 1.592507 -0.64653003 43 0
1.8452296 1.6199321 -0.56687671 27 1
1.8226277 1.5899793 -0.64808291 40 0
1.8351896 1.5902523 -0.65067112 34 0
1.8404534 1.5841575 -0.65067112 29 0
1.8400967 1.5727041 -0.64860052 24 0
1.8573589 1.5762709 -0.65274167 19 0
1.8746685 1.5797364 -0.65688276 12 0
1.8769345 1.5710307 -0.65584749 8 0
1.832878 1.7601246 -0.58667237 4 1
1.7992238 1.716373 -0.5740751 12 1
1.8257126 1.7410351 -0.49037915 1 2
1.7950029 1.7010154 -0.57092583 22 1
1.8172228 1.7214699 -0.48656297 5 2
1.7966726 1.6907322 -0.56957608 29 1
1.8206592 1.7121083 -0.4857997 21 2
1.826625 1.705742 -0.4857997 49 2
1.8135607 1.6823179 -0.48083872 51 2
1.8147978 1.6723036 -0.47969386 60 2
1.8249691 1.6699351 -0.48083872 70 2
1.8322406 1.6648744 -0.4812203 74 2
1.835126 1.6558377 -0.48045707 74 2
1.8408943 1.6494222 -0.48045707 66 2
1.8481081 1.6442908 -0.48083872 60 2
1.8609054 1.6446542 -0.48274681 51 2
1.8740127 1.6446235 -0.4846549 32 2
1.8611544 1.6224462 -0.57002604 20 1
1.8989841 1.6548392 -0.48961592 7 2
1.8753638 1.6239189 -0.57272542 9 1
