# .PCD v0.7 - Point Cloud Data file format
VERSION 0.7
FIELDS x y z intensity ring
SIZE 4 4 4 4 2
TYPE F F F F U
COUNT 1 1 1 1 1
WIDTH 55
HEIGHT 1
VIEWPOINT 0 0 0 1 0 0 0
POINTS 55
DATA ascii
2.3404498 1.0488957 -0.31491041 3 4
2.3422828 1.0399135 -0.31466666 12 4
2.3477149 1.0325319 -0.31491041 29 4
2.3513052 1.0243299 -0.31491041 32 4
2.3566895 1.016902 -0.31515417 25 4
2.3565736 1.0071096 -0.31466666 9 4
2.335171 0.96201158 -0.58307314 23 1
2.3581786 0.97100854 -0.49572179 9 2
2.3475375 0.95753384 -0.58532268 14 1
2.3761623 0.95955098 -0.59162134 7 1
2.4066401 0.96210086 -0.59836984 4 1
2.4117961 0.95441073 -0.59881973 3 1
2.4477739 0.95877987 -0.60691798 3 1
2.3384728 1.1400447 -0.60061932 3 1
2.3196275 1.1208534 -0.59477061 5 1
2.3077083 1.1051735 -0.59072149 5 1
2.3166418 1.1000217 -0.59207124 6 1
2.2957814 1.0803126 -0.58577257 11 1
2.2855947 1.0653054 -0.58217335 21 1
2.3152626 1.0786415 -0.49648505 2 2
2.2804539 1.0532346 -0.57992387 24 1
2.3190138 1.0705526 -0.49648505 12 2
2.2841163 1.0452684 -0.57992387 27 1
2.306668 1.0551019 -0.49305046 37 2
2.2925353 1.0476685 -0.39922079 3 3
2.2895257 1.0380942 -0.58037376 37 1
2.2978201 1.0413702 -0.49037915 49 2
2.3267694 1.0535126 -0.40453959 18 3
2.28247 1.0253041 -0.57767433 40 1
2.2978594 1.0317341 -0.48961592 54 2
2.3322353 1.046192 -0.40485242 39 3
2.2771327 1.0133696 -0.57542485 47 1
2.2978582 1.0221124 -0.48885265 60 2
2.3214314 1.0316275 -0.40234947 57 3
2.2806563 1.005414 -0.57542485 56 1
2.3050058 1.0156679 -0.48961592 66 2
2.3268266 1.0243132 -0.40266237 69 3
2.287724 0.99900603 -0.57632464 70 1
2.29954 1.0036894 -0.48770785 70 2
2.3303883 1.0161843 -0.40266237 100 3
2.2894082 0.99024236 -0.57587475 50 1
2.30303 0.99565578 -0.48770785 61 2
2.3266668 1.0049121 -0.40141091 54 3
2.3035986 0.98684841 -0.57857412 44 1
2.3173203 0.99224675 -0.48999751 57 2
2.3283443 0.99600679 -0.40109801 41 3
2.2998536 0.9757573 -0.57677454 39 1
2.3334217 0.98951745 -0.49266884 52 2
2.3409011 0.9917267 -0.40266237 25 3
2.3014491 0.96696788 -0.57632464 33 1
2.3386717 0.98212695 -0.49305046 42 2
2.3479919 0.98507714 -0.4032881 10 3
2.3210037 0.9656651 -0.58037376 27 1
2.3438981 0.97471189 -0.4934321 28 2
2.3612309 1.1101044 -0.50717038 1 2
