# .PCD v0.7 - Point Cloud Data file format
VERSION 0.7
FIELDS x y z intensity ring
SIZE 4 4 4 4 2
TYPE F F F F U
COUNT 1 1 1 1 1
WIDTH 51
HEIGHT 1
VIEWPOINT 0 0 0 1 0 0 0
POINTS 51
DATA ascii
1.8499852 1.8065858 -0.40954545 1 3
1.8520255 1.7959921 -0.40860689 6 3
1.855437 1.7867761 -0.40798113 29 3
1.8659462 1.7843838 -0.40891972 48 3
1.8664335 1.772419 -0.40766826 65 3
1.8740468 1.7672478 -0.40798113 88 3
1.8715535 1.7525936 -0.40610394 52 3
1.8762119 1.7447062 -0.40579104 34 3
1.8906939 1.7465165 -0.40766826 21 3
1.8938681 1.7372352 -0.40704253 2 3
1.7607279 1.7224264 -0.65998858 8 0
1.7653434 1.7149241 -0.65947098 9 0
1.7685387 1.7060685 -0.6584357 11 0
1.777272 1.7025589 -0.65947098 16 0
1.7860042 1.6990073 -0.66050619 20 0
1.7919244 1.692762 -0.66050619 24 0
1.7907771 1.6798885 -0.65791804 22 0
1.7980442 1.6749437 -0.6584357 19 0
1.8024613 1.6673456 -0.65791804 14 0
1.8150927 1.6678954 -0.66050619 12 0
1.8237581 1.6641532 -0.66154152 9 0
1.8519014 1.8493181 -0.60421854 5 1
1.8112984 1.7961887 -0.5889219 13 1
1.8282095 1.8116934 -0.50030124 1 2
1.8053714 1.7772336 -0.58487278 21 1
1.8387208 1.8094313 -0.50144607 6 2
1.8143516 1.7736449 -0.58577257 26 1
1.8380055 1.7961409 -0.49953794 29 2
1.8191332 1.7659439 -0.58532268 33 1
1.8470814 1.792449 -0.50030124 56 2
1.8238829 1.7582309 -0.58487278 37 1
1.8363633 1.7696422 -0.49572179 56 2
1.8201559 1.7424202 -0.58172351 41 1
1.8439467 1.7645801 -0.49610341 65 2
1.8276389 1.737399 -0.58217335 54 1
1.8472492 1.7554275 -0.4953402 68 2
1.8266073 1.7243197 -0.57992387 83 1
1.8490822 1.7449259 -0.49419534 74 2
1.8397244 1.7245965 -0.58217335 67 1
1.8537289 1.7371185 -0.49381369 68 2
1.8471584 1.7194933 -0.5826233 46 1
1.8626562 1.7333115 -0.49457693 63 2
1.8571432 1.717327 -0.58397299 39 1
1.8802301 1.7374588 -0.49762988 57 2
1.8602561 1.7081972 -0.58307314 34 1
1.8946589 1.7391804 -0.49991959 46 2
1.8774281 1.7125257 -0.58667237 26 1
1.9050716 1.7365234 -0.50106448 25 2
1.8949486 1.7164284 -0.59027159 20 1
1.9122744 1.7315143 -0.50144607 3 2
1.9197645 1.7267444 -0.5961203 9 1
