# .PCD v0.7 - Point Cloud Data file format
VERSION 0.7
FIELDS x y z intensity ring
SIZE 4 4 4 4 2
TYPE F F F F U
COUNT 1 1 1 1 1
WIDTH 57
HEIGHT 1
VIEWPOINT 0 0 0 1 0 0 0
POINTS 57
DATA ascii
2.3373003 1.0750382 -0.31588537 1 4
2.3012993 1.048762 -0.31052312 6 4
2.3302746 1.0521606 -0.31393546 23 4
2.3395524 1.0460417 -0.31466666 34 4
2.332119 1.0334527 -0.31320426 38 4
2.3248057 1.0205189 -0.3117418 22 4
2.326534 1.0116055 -0.31149808 7 4
2.3718891 0.9752019 -0.59207124 6 1
2.3898878 0.9723779 -0.59567046 4 1
2.40609 0.96870601 -0.59881973 3 1
2.4163616 0.96403003 -0.60061932 3 1
2.2546871 1.0014957 -0.56957608 68 1
2.2599535 0.99440348 -0.57002604 48 1
2.3138008 1.1460657 -0.5961203 3 1
2.3022411 1.1298511 -0.59207124 5 1
2.3007185 1.1196516 -0.59072149 6 1
2.2730191 1.0963739 -0.5826233 8 1
2.2715576 1.085912 -0.58127356 14 1
2.343776 1.119431 -0.50488061 1 2
2.264955 1.0725741 -0.57857412 23 1
2.2820122 1.0801654 -0.49076074 5 2
2.2543874 1.0584323 -0.57497495 26 1
2.2875466 1.0730263 -0.49114239 21 2
2.2786088 1.0683486 -0.39859506 1 3
2.2527673 1.0480909 -0.57362527 34 1
2.2946525 1.0670907 -0.4919056 42 2
2.2894897 1.0637182 -0.39984655 6 3
2.258182 1.0410362 -0.5740751 37 1
2.2734005 1.0475723 -0.48656297 49 2
2.3021612 1.0598496 -0.40141091 24 3
2.2635746 1.0339575 -0.57452506 41 1
2.2698996 1.0363679 -0.48503649 54 2
2.3130352 1.0550869 -0.40266237 46 3
2.2689457 1.0268527 -0.57497495 48 1
2.2701051 1.0264243 -0.48427325 60 2
2.3060858 1.0417222 -0.40078515 59 3
2.2638021 1.0145453 -0.57272542 62 1
2.2844248 1.0233089 -0.48656297 66 2
2.291677 1.0255972 -0.39765644 78 3
2.284394 1.0137352 -0.4857997 66 2
2.2986767 1.0195946 -0.39828217 88 3
2.2859454 1.0053655 -0.48541811 63 2
2.3112645 1.015537 -0.39984655 49 3
2.2777021 0.99273819 -0.57362527 42 1
2.2932155 0.99854618 -0.48618135 58 2
2.3149712 1.0070595 -0.39984655 33 3
2.2884824 0.98747098 -0.57542485 37 1
2.3057005 0.99442321 -0.48808944 52 2
2.3148441 0.99740863 -0.39922079 23 3
2.288161 0.97834378 -0.57452506 31 1
2.318012 0.99062985 -0.48999751 41 2
2.3290396 0.99438006 -0.40109801 7 3
2.2985697 0.97379285 -0.57632464 28 1
2.3375554 0.9898268 -0.4934321 24 2
2.312737 0.97028631 -0.57902408 21 1
2.3428063 0.98242074 -0.49381369 5 2
2.3287075 0.96744025 -0.58217335 12 1
