# .PCD v0.7 - Point Cloud Data file format
VERSION 0.7
FIELDS x y z intensity ring
SIZE 4 4 4 4 2
TYPE F F F F U
COUNT 1 1 1 1 1
WIDTH 60
HEIGHT 1
VIEWPOINT 0 0 0 1 0 0 0
POINTS 60
DATA ascii
1.8355863 1.6696699 -0.30467337 2 4
1.845823 1.6672436 -0.3054046 13 4
1.854587 1.6634417 -0.30589208 47 4
1.8675032 1.6638856 -0.30711079 59 4
1.8539727 1.6402565 -0.30394217 66 4
1.8537211 1.6285344 -0.30296722 42 4
1.871647 1.6321664 -0.30491713 24 4
1.8740487 1.623351 -0.30442965 4 4
1.9105207 1.567088 -0.57047588 7 1
1.9313643 1.5723782 -0.57497495 6 1
1.7950575 1.6581728 -0.56417727 31 1
1.7904952 1.6429888 -0.561028 38 1
1.7918985 1.6327907 -0.55967826 44 1
1.8062567 1.6343712 -0.56237763 48 1
1.811951 1.6280557 -0.56237763 49 1
1.8042549 1.6103597 -0.55832857 58 1
1.8040313 1.5988822 -0.55652899 70 1
1.8324442 1.6234916 -0.47587767 100 2
1.8110646 1.5938622 -0.55697882 52 1
1.838382 1.6167649 -0.47587767 70 2
1.824232 1.5936242 -0.55922836 46 1
1.8427538 1.5990607 -0.56327748 44 1
1.8409432 1.5862576 -0.561028 42 1
1.8494294 1.5823569 -0.5619278 37 1
1.86413 1.5831354 -0.56462723 30 1
1.8001671 1.7463123 -0.57902408 5 1
1.7823937 1.7170335 -0.57137573 7 1
1.7757024 1.6986778 -0.56732661 7 1
1.7802086 1.6911266 -0.56687671 8 1
1.7903523 1.688915 -0.5682264 9 1
1.7933929 1.6799903 -0.56732661 15 1
1.8035272 1.6777014 -0.56867629 26 1
1.8129408 1.6858698 -0.4812203 3 2
1.8231422 1.6835264 -0.48236516 15 2
1.8146662 1.6745265 -0.39108619 2 3
1.8203253 1.6691914 -0.48007545 25 2
1.821665 1.6698347 -0.39139909 10 3
1.8171427 1.655213 -0.47778577 34 2
1.8304046 1.6661246 -0.39202482 38 3
1.8185409 1.6449093 -0.47664091 46 2
1.8303473 1.6544273 -0.39077336 53 3
1.8242722 1.6385509 -0.47664091 55 2
1.8258213 1.6387912 -0.38858327 60 3
1.8329107 1.634787 -0.47740412 67 2
1.8312454 1.632728 -0.38858327 67 3
1.838412 1.6276355 -0.38889611 72 3
1.8458505 1.6221893 -0.389209 63 3
1.8469722 1.6129202 -0.47664091 55 2
1.8604305 1.6235301 -0.39108619 57 3
1.8600078 1.6128936 -0.478549 45 2
1.8628193 1.6147637 -0.39046046 49 3
1.8668326 1.6079993 -0.47893062 33 2
1.8714391 1.6108282 -0.39108619 30 3
1.8816673 1.6088008 -0.4812203 24 2
1.8833377 1.6090913 -0.39233768 5 3
1.888768 1.6034936 -0.48160195 10 2
1.8756027 1.5816449 -0.56642681 22 1
1.8915715 1.5838451 -0.56957608 11 1
1.8983121 1.5788094 -0.57002604 7 1
1.89302 1.5638182 -0.56687671 6 1
