# .PCD v0.7 - Point Cloud Data file format
VERSION 0.7
FIELDS x y z intensity ring
SIZE 4 4 4 4 2
TYPE F F F F U
COUNT 1 1 1 1 1
WIDTH 51
HEIGHT 1
VIEWPOINT 0 0 0 1 0 0 0
POINTS 51
DATA ascii
2.2776072 1.4616371 -0.4286305 1 3
2.3010232 1.4653503 -0.43207204 10 3
2.3042004 1.4566556 -0.43175918 36 3
2.3042514 1.4454538 -0.43082058 48 3
2.3042514 1.4342706 -0.42988196 59 3
2.3075628 1.4251809 -0.42956907 43 3
2.3192613 1.4212453 -0.43082058 24 3
2.3258958 1.4141676 -0.43113342 9 3
2.247189 1.4772506 -0.62086499 8 1
2.1950984 1.4331521 -0.70243496 17 0
2.2441719 1.4640731 -0.61861545 19 1
2.2907431 1.4938873 -0.53159386 3 2
2.1952243 1.4223291 -0.70088202 20 0
2.2525394 1.4583501 -0.61951524 25 1
2.2794623 1.4752147 -0.52777767 13 2
2.1920507 1.4094341 -0.69829381 24 0
2.2592559 1.4515311 -0.61996514 29 1
2.2697306 1.4577011 -0.52434313 38 2
2.1969569 1.4017743 -0.69829381 25 0
2.2610223 1.4415412 -0.61906534 40 1
2.2665272 1.4444931 -0.52243507 53 2
2.2018371 1.3940965 -0.69829381 25 0
2.2509708 1.4246553 -0.61501622 46 1
2.2732146 1.4376225 -0.52281672 60 2
2.2146261 1.3919265 -0.70088202 26 0
2.2559307 1.4167886 -0.61501622 58 1
2.2746444 1.4279878 -0.52205342 62 2
2.216193 1.3821435 -0.69984674 26 0
2.2575541 1.4068445 -0.61411637 85 1
2.2712829 1.4148496 -0.52014536 65 2
2.2193615 1.373382 -0.69932908 25 0
2.2641084 1.3999809 -0.61456633 54 1
2.2795482 1.4089766 -0.52090853 68 2
2.217556 1.3615848 -0.69725859 22 0
2.2806089 1.3992021 -0.6177156 40 1
2.2978404 1.4092234 -0.52396154 61 2
2.2305446 1.3588606 -0.69984674 21 0
2.2804854 1.3881935 -0.61636597 34 1
2.3027458 1.4011933 -0.52396154 48 2
2.2418878 1.355063 -0.70191729 17 0
2.2853177 1.380224 -0.61636597 27 1
2.3177075 1.3992342 -0.52625126 32 2
2.2416337 1.3442487 -0.70036435 12 0
2.2968082 1.3762443 -0.61816555 20 1
2.3377354 1.400215 -0.5296858 7 2
2.2512934 1.3393785 -0.70191729 10 0
2.3267238 1.3831571 -0.62491405 10 1
2.2459726 1.3256207 -0.69881141 9 0
2.2689242 1.3285106 -0.70450544 8 0
2.3378727 1.548579 -0.64740914 3 1
2.3052037 1.5148119 -0.53617334 1 2
