# .PCD v0.7 - Point Cloud Data file format
VERSION 0.7
FIELDS x y z intensity ring
SIZE 4 4 4 4 2
TYPE F F F F U
COUNT 1 1 1 1 1
WIDTH 50
HEIGHT 1
VIEWPOINT 0 0 0 1 0 0 0
POINTS 50
DATA ascii
2.3939881 1.4994178 -0.44740263 1 3
2.3771381 1.4779123 -0.44333532 3 3
2.3772388 1.4664947 -0.4423967 12 3
2.387398 1.4612807 -0.44333532 23 3
2.3975494 1.4560149 -0.44427395 18 3
2.3955967 1.4439777 -0.44302243 9 3
2.4480932 1.4639938 -0.45178279 1 3
2.283489 1.4885886 -0.73038733 18 0
2.2858362 1.4456047 -0.72469336 26 0
2.3159571 1.4640877 -0.6325624 29 1
2.2941408 1.4396709 -0.72572863 32 0
2.318006 1.4535184 -0.63166261 37 1
2.292593 1.427569 -0.72365808 37 0
2.3228128 1.4458241 -0.63166261 44 1
2.2956712 1.4189422 -0.72314042 49 0
2.3311613 1.4397557 -0.6325624 78 1
2.3088436 1.4159715 -0.72572863 47 0
2.3262038 1.4254998 -0.62986302 74 1
2.3220243 1.4129241 -0.72831684 39 0
2.3295002 1.4163591 -0.62941307 47 1
2.3269424 1.4048095 -0.72831684 30 0
2.3441947 1.4146682 -0.6321125 37 1
2.3282745 1.3950989 -0.72728157 28 0
2.3381107 1.3899262 -0.72883451 25 0
2.3512688 1.3866624 -0.73142266 22 0
2.3627644 1.3823491 -0.73349321 13 0
2.3740323 1.366783 -0.73401088 7 0
2.3452055 1.5160205 -0.64470977 2 1
2.3321788 1.4966581 -0.63976085 10 1
2.3174069 1.4763508 -0.63436204 20 1
2.3531415 1.4985405 -0.54227924 1 2
2.3602781 1.4909537 -0.54266083 11 2
2.3604772 1.479578 -0.54151595 36 2
2.3572927 1.4661443 -0.53960788 48 2
2.3604715 1.4572874 -0.53922629 55 2
2.3655429 1.4490405 -0.53922629 61 2
2.3722646 1.4417933 -0.53960788 58 2
2.3739209 1.4314756 -0.53884465 43 2
2.3624947 1.4144847 -0.63571173 30 1
2.3786552 1.423595 -0.53884465 25 2
2.3774703 1.412201 -0.6384111 20 1
2.397114 1.4233035 -0.54189759 7 2
2.3807068 1.4029037 -0.63796127 8 1
2.3776007 1.3799109 -0.73659903 8 0
2.383821 1.3613623 -0.73556381 7 0
2.4104099 1.3654116 -0.742293 4 0
2.4842138 1.3957881 -0.76351619 3 0
2.3162012 1.5788208 -0.75109291 7 0
2.311825 1.5646341 -0.74798709 5 0
2.2932172 1.5403982 -0.74022251 7 0
