# .PCD v0.7 - Point Cloud Data file format
VERSION 0.7
FIELDS x y z intensity ring
SIZE 4 4 4 4 2
TYPE F F F F U
COUNT 1 1 1 1 1
WIDTH 50
HEIGHT 1
VIEWPOINT 0 0 0 1 0 0 0
POINTS 50
DATA ascii
2.2090173 1.4726748 -0.4204959 39 3
2.2092018 1.4616854 -0.4195573 48 3
2.2208958 1.4583013 -0.42080876 55 3
2.2259731 1.4505395 -0.42080876 38 3
2.2326806 1.4438347 -0.42112163 22 3
2.2460198 1.4413662 -0.42268598 6 3
2.2361743 1.524271 -0.4286305 1 3
2.2185755 1.5009599 -0.42425033 4 3
2.2074018 1.4821939 -0.42112163 22 3
2.1207786 1.4159887 -0.68328232 27 0
2.1606395 1.4420577 -0.59971952 46 1
2.1952057 1.4640204 -0.51289463 67 2
2.1254623 1.4089485 -0.68328232 28 0
2.1624105 1.4323549 -0.59881973 62 1
2.1935003 1.4523978 -0.5113681 71 2
2.1287539 1.4004583 -0.68276465 31 0
2.1673975 1.4247974 -0.59881973 80 1
2.1936347 1.441497 -0.51022327 76 2
2.1352468 1.3940756 -0.68328232 27 0
2.1821508 1.4236113 -0.60151911 46 1
2.195364 1.4316866 -0.50946003 70 2
2.1417217 1.3876638 -0.68379998 24 0
2.1887419 1.4170461 -0.60196906 35 1
2.2069416 1.4282809 -0.51098651 61 2
2.1465521 1.3801798 -0.68379998 23 0
2.1920357 1.4083433 -0.60151911 28 1
2.2185209 1.4248126 -0.51251298 48 2
2.1562421 1.3757962 -0.68535286 20 0
2.2002246 1.4027789 -0.60241896 25 1
2.2383819 1.4265556 -0.51594758 30 2
2.1740894 1.376528 -0.68949395 17 0
2.2182829 1.4034246 -0.60601819 19 1
2.2499847 1.4229316 -0.517474 7 2
2.170702 1.3637924 -0.68690574 13 0
2.2462749 1.4101781 -0.61231679 9 1
2.1803677 1.3592725 -0.68845868 11 0
2.1912189 1.5286148 -0.61681581 3 1
2.1596916 1.4954416 -0.60646808 10 1
2.2115541 1.5307816 -0.52281672 1 2
2.110604 1.4516635 -0.68638813 20 0
2.1550035 1.4816475 -0.60376865 21 1
2.1990838 1.5108242 -0.51861888 7 2
2.1138105 1.4435674 -0.68587047 23 0
2.1633823 1.4763125 -0.6046685 26 1
2.1878631 1.4924604 -0.51480269 26 2
2.1092424 1.4296761 -0.68276465 25 0
2.1733625 1.4720308 -0.60601819 30 1
2.1849313 1.4793103 -0.51289463 42 2
2.1736362 1.4611733 -0.6046685 40 1
2.1900821 1.4716738 -0.51289463 55 2
