# .PCD v0.7 - Point Cloud Data file format
VERSION 0.7
FIELDS x y z intensity ring
SIZE 4 4 4 4 2
TYPE F F F F U
COUNT 1 1 1 1 1
WIDTH 58
HEIGHT 1
VIEWPOINT 0 0 0 1 0 0 0
POINTS 58
DATA ascii
2.11573 1.3489084 -0.30808574 1 4
2.1050956 1.33233 -0.30589208 9 4
2.1164582 1.329196 -0.30686703 28 4
2.1326458 1.329522 -0.30857319 42 4
2.1305206 1.3178928 -0.30759826 41 4
2.1264207 1.3056276 -0.30637956 24 4
2.1258798 1.2950982 -0.30564833 7 4
2.01127 1.2286487 -0.63151848 4 0
2.0089386 1.2176148 -0.62944794 4 0
2.0096543 1.2089549 -0.62841266 3 0
2.0618746 1.3688697 -0.57137573 6 1
2.0606046 1.3566566 -0.56957608 13 1
2.0909507 1.3761114 -0.48656297 1 2
2.06183 1.347683 -0.56867629 23 1
2.0743732 1.3548472 -0.48160195 6 2
2.068157 1.3415376 -0.56912625 27 1
2.0788538 1.3479623 -0.48160195 23 2
2.0954797 1.3577026 -0.39546639 1 3
2.0564411 1.3237628 -0.56462723 34 1
2.078594 1.3375099 -0.48045707 38 2
2.0819285 1.3386283 -0.39202482 6 3
2.0495532 1.3092333 -0.56147784 37 1
2.079941 1.3281325 -0.47969386 46 2
2.0865884 1.3313533 -0.39202482 23 3
2.058821 1.3055599 -0.56282759 43 1
2.074614 1.3145596 -0.47740412 56 2
2.0976675 1.3286542 -0.3932763 46 3
2.0633659 1.2983648 -0.56282759 47 1
2.0723143 1.3034918 -0.47587767 60 2
2.0972755 1.3181698 -0.39233768 55 3
2.0693121 1.2925489 -0.56327748 64 1
2.0851793 1.3014472 -0.47778577 70 2
2.0932546 1.3059809 -0.39077336 67 3
2.0622168 1.278131 -0.56012815 64 1
2.0861461 1.2924567 -0.4770225 72 2
2.097801 1.2986656 -0.39077336 69 3
2.0631247 1.2692426 -0.55922836 46 1
2.0990067 1.290309 -0.47893062 64 2
2.1071455 1.2948041 -0.39171195 51 3
2.0758598 1.2671092 -0.56147784 38 1
2.0982466 1.2802731 -0.47778577 61 2
2.1133389 1.2884685 -0.39202482 38 3
2.0917165 1.2672886 -0.56462723 36 1
2.1010234 1.2719237 -0.47740412 55 2
2.1311202 1.2896354 -0.39452776 25 3
2.0961277 1.2599788 -0.56462723 32 1
2.1138647 1.2696376 -0.47931221 45 2
2.1373022 1.2832059 -0.39484066 7 3
2.1024051 1.2532859 -0.56507707 26 1
2.1370587 1.2729315 -0.48351002 25 2
2.1153724 1.2505296 -0.56732661 20 1
2.1516299 1.271457 -0.4857997 6 2
2.1295931 1.2494241 -0.57002604 13 1
2.1657212 1.260987 -0.57857412 6 1
2.2106097 1.2768111 -0.5893718 4 1
2.2268896 1.2758676 -0.59252113 3 1
2.1074588 1.4198935 -0.58667237 4 1
2.0945821 1.4006145 -0.58172351 5 1
