# .PCD v0.7 - Point Cloud Data file format
VERSION 0.7
FIELDS x y z intensity ring
SIZE 4 4 4 4 2
TYPE F F F F U
COUNT 1 1 1 1 1
WIDTH 57
HEIGHT 1
VIEWPOINT 0 0 0 1 0 0 0
POINTS 57
DATA ascii
2.0113223 1.7570637 -0.42299888 2 3
2.0219202 1.7539147 -0.42393744 18 3
2.0163593 1.7361815 -0.42143452 31 3
2.0179036 1.7252809 -0.4204959 38 3
2.0296369 1.723694 -0.42174736 28 3
2.0386603 1.7191468 -0.42237309 12 3
2.0563786 1.6873257 -0.61411637 1 1
2.0452993 1.6675112 -0.70709366 9 0
2.0553222 1.6643664 -0.7086466 5 0
2.0550957 1.6523411 -0.70657599 4 0
2.0714202 1.6535935 -0.71019953 3 0
2.1165438 1.6775516 -0.72365808 3 0
1.9102403 1.7670454 -0.69725859 8 0
1.9358582 1.7418314 -0.69777614 26 0
1.9387428 1.7328281 -0.69674093 32 0
1.9393001 1.7205825 -0.69467032 39 0
1.9452946 1.713802 -0.69467032 43 0
1.9512656 1.7070007 -0.69467032 48 0
1.9452487 1.690385 -0.69052929 52 0
1.9499696 1.6819805 -0.69001162 57 0
1.9717394 1.7001601 -0.60106927 66 1
1.9675658 1.6852186 -0.69415271 60 0
1.9705555 1.6865857 -0.59881973 70 1
1.9778517 1.6820945 -0.69570565 50 0
1.9805923 1.6838279 -0.60016948 53 1
1.9789919 1.6717857 -0.69415271 45 0
1.9833349 1.6636266 -0.69363505 40 0
1.9950676 1.6616391 -0.69570565 33 0
1.9440354 1.824293 -0.71434063 3 0
1.9178838 1.7872057 -0.70243496 8 0
1.9277782 1.7708219 -0.70139962 8 0
1.9296664 1.7601758 -0.69984674 10 0
1.9415257 1.7586174 -0.70191729 19 0
1.9692321 1.782461 -0.61321658 1 1
1.9664364 1.7681048 -0.6105172 5 1
1.9708358 1.7602754 -0.61006731 16 1
2.0282936 1.8109583 -0.52854097 1 2
1.9623893 1.740454 -0.60556829 29 1
1.999655 1.7722602 -0.51938212 6 2
1.9629041 1.7280995 -0.60376865 40 1
1.9940393 1.7548925 -0.51632917 26 2
1.9612889 1.7151668 -0.60151911 45 1
1.9927617 1.7414614 -0.51442105 38 2
1.9731501 1.7134206 -0.60331875 52 1
1.9970421 1.7335579 -0.51403946 51 2
2.0004089 1.723662 -0.51327622 60 2
2.0123796 1.7217758 -0.51480269 62 2
2.0153854 1.7121979 -0.51403946 55 2
1.9924129 1.6819336 -0.60196906 45 1
2.0135505 1.6991739 -0.51213133 42 2
2.0072334 1.6824791 -0.6046685 35 1
2.0269935 1.69844 -0.51403946 28 2
2.0175872 1.6792027 -0.60601819 23 1
2.0510209 1.7064214 -0.51861888 7 2
2.011277 1.6632823 -0.69932908 28 0
2.0249388 1.6733906 -0.60646808 10 1
2.0305073 1.6672852 -0.70398778 20 0
