# .PCD v0.7 - Point Cloud Data file format
VERSION 0.7
FIELDS x y z intensity ring
SIZE 4 4 4 4 2
TYPE F F F F U
COUNT 1 1 1 1 1
WIDTH 52
HEIGHT 1
VIEWPOINT 0 0 0 1 0 0 0
POINTS 52
DATA ascii
1.927229 1.7971696 -0.41736722 1 3
1.9138169 1.7709737 -0.41298702 11 3
1.9284055 1.7726381 -0.41486427 36 3
1.9316632 1.7632328 -0.41423854 50 3
1.9378059 1.7564797 -0.41423854 73 3
1.9409882 1.747062 -0.41361275 64 3
1.9349908 1.7300819 -0.41110981 40 3
1.9454502 1.7272512 -0.41204843 24 3
1.9618396 1.7295948 -0.41423854 7 3
1.887902 1.7984539 -0.60196906 7 1
1.8224182 1.7251832 -0.67241186 7 0
1.8740391 1.7734317 -0.59567046 16 1
1.8871948 1.7846311 -0.50488061 1 2
1.8351648 1.7257489 -0.67500007 9 0
1.8745381 1.7615405 -0.59387082 24 1
1.9059795 1.790462 -0.50831515 10 2
1.8256468 1.7048285 -0.6693061 12 0
1.8789451 1.7539843 -0.59342092 29 1
1.9107826 1.7824584 -0.50793356 38 2
1.8375496 1.7033794 -0.67137665 17 0
1.8828065 1.7441087 -0.59252113 35 1
1.9086595 1.76744 -0.50564384 54 2
1.836378 1.6904124 -0.66878843 20 0
1.8785423 1.7286181 -0.5893718 43 1
1.9133728 1.7594374 -0.50526226 63 2
1.8462511 1.688224 -0.67034137 22 0
1.8845645 1.7220507 -0.5893718 47 1
1.9119492 1.7464616 -0.50335413 66 2
1.8507023 1.6804708 -0.66982371 24 0
1.8963364 1.7207003 -0.59117138 82 1
1.9064003 1.7292254 -0.50030124 76 2
1.8551226 1.6727061 -0.6693061 25 0
1.8907491 1.703635 -0.58757222 90 1
1.9138839 1.7238737 -0.50068283 72 2
1.8595104 1.6649321 -0.66878843 24 0
1.9123611 1.7116513 -0.59252113 50 1
1.9286696 1.725036 -0.50297254 68 2
1.8736829 1.6664594 -0.67189431 20 0
1.9124984 1.6997868 -0.59072149 40 1
1.937315 1.7212381 -0.50373578 59 2
1.8838323 1.6637458 -0.67344719 18 0
1.9257252 1.6995484 -0.59297103 35 1
1.9477279 1.7183622 -0.50488061 51 2
1.8896289 1.6571594 -0.67344719 15 0
1.9316458 1.6928164 -0.59297103 25 1
1.9566681 1.7141397 -0.50564384 33 2
1.8881161 1.6442111 -0.67085898 10 0
1.9551841 1.701414 -0.59836984 20 1
1.9685634 1.7124547 -0.50717038 9 2
1.8982284 1.6414003 -0.67241186 7 0
1.9743817 1.7060462 -0.60241896 12 1
2.0468783 1.7562468 -0.62266457 5 1
