# .PCD v0.7 - Point Cloud Data file format
VERSION 0.7
FIELDS x y z intensity ring
SIZE 4 4 4 4 2
TYPE F F F F U
COUNT 1 1 1 1 1
WIDTH 50
HEIGHT 1
VIEWPOINT 0 0 0 1 0 0 0
POINTS 50
DATA ascii
1.5839287 1.7315872 -0.37168834 1 3
1.5725652 1.7071598 -0.36762103 2 3
1.5758283 1.6987631 -0.3669953 5 3
1.5803998 1.6918089 -0.36668244 6 3
1.5849416 1.6848434 -0.36636955 3 3
1.6027452 1.6924869 -0.36918539 1 3
1.5171109 1.7323716 -0.6170246 7 0
1.5374048 1.7543107 -0.53853285 1 1
1.5014266 1.7024341 -0.60822481 17 0
1.5148511 1.7170534 -0.52863503 2 1
1.4942373 1.6829996 -0.60304838 25 0
1.5078927 1.6971865 -0.52413601 9 1
1.4939559 1.6703123 -0.60046023 28 0
1.5203054 1.6991737 -0.52638549 29 1
1.5322251 1.7112952 -0.44649309 1 2
1.5088273 1.6751357 -0.60408366 40 0
1.5160847 1.6820103 -0.52278626 47 1
1.55528 1.7248914 -0.45145413 6 2
1.5081764 1.6627038 -0.6014955 43 0
1.5124872 1.6668717 -0.51963699 58 1
1.542815 1.6991029 -0.44611144 21 2
1.5201949 1.6648266 -0.60408366 47 0
1.5182961 1.6615822 -0.51963699 64 1
1.5404932 1.6852834 -0.44382176 38 2
1.5155361 1.6481333 -0.59994256 51 0
1.5267264 1.6591398 -0.52053678 70 1
1.5437076 1.6770062 -0.44305849 44 2
1.5160295 1.6371636 -0.59787202 61 0
1.5285354 1.6495119 -0.51918709 77 1
1.5442129 1.6658487 -0.44153205 60 2
1.5230528 1.633274 -0.59838963 69 0
1.5263064 1.635618 -0.51648766 81 1
1.5500189 1.6604478 -0.44153205 76 2
1.5313895 1.6307646 -0.59942496 56 0
1.5280026 1.6260203 -0.51513797 72 1
1.5665627 1.666471 -0.444585 48 2
1.5397276 1.6282159 -0.60046023 47 0
1.5467788 1.6351006 -0.51963699 62 1
1.571021 1.6595663 -0.44420335 36 2
1.5464501 1.6245005 -0.60097784 43 0
1.5578531 1.6353357 -0.52143657 56 1
1.5751611 1.6529268 -0.44382176 23 2
1.550774 1.6176982 -0.60046023 40 0
1.5646161 1.6315675 -0.52188647 45 1
1.5877184 1.6545005 -0.44572985 9 2
1.5658041 1.6220042 -0.60408366 31 0
1.5760008 1.6314285 -0.52368605 26 1
1.5795363 1.6248394 -0.60718954 23 0
1.5816864 1.625917 -0.52368605 6 1
1.5946571 1.6289803 -0.61081296 12 0
