# .PCD v0.7 - Point Cloud Data file format
VERSION 0.7
FIELDS x y z intensity ring
SIZE 4 4 4 4 2
TYPE F F F F U
COUNT 1 1 1 1 1
WIDTH 66
HEIGHT 1
VIEWPOINT 0 0 0 1 0 0 0
POINTS 66
DATA ascii
2.3790183 0.98250431 -0.40766826 48 3
2.3897469 0.97718513 -0.40891972 29 3
2.4059606 0.97402561 -0.41110981 12 3
2.4069638 1.0530784 -0.41611573 1 3
2.3671255 1.0258185 -0.40860689 2 3
2.3759589 1.0203018 -0.40954545 15 3
2.3958662 1.0189605 -0.41236129 41 3
2.4030497 1.0121241 -0.41298702 55 3
2.3901594 0.99688655 -0.41017124 78 3
2.298986 0.95180231 -0.66671789 48 0
2.3094444 0.94670194 -0.66878843 47 0
2.3124123 0.92911547 -0.66775316 42 0
2.3392282 0.96750534 -0.58442289 61 1
2.3695207 0.97955143 -0.49839315 63 2
2.3407876 0.95859605 -0.58397299 43 1
2.3765595 0.97276115 -0.49915636 58 2
2.3198955 0.94154 -0.67085898 42 0
2.3567612 0.95554423 -0.58712232 36 1
2.3744824 0.96224672 -0.4980115 51 2
2.3727422 0.95239252 -0.59027159 28 1
2.3832929 0.95614594 -0.49915636 40 2
2.321188 0.9227742 -0.6693061 39 0
2.3814845 0.94626474 -0.59162134 22 1
2.3977299 0.9517495 -0.50144607 12 2
2.3261924 0.91537398 -0.66982371 32 0
2.3885639 0.9389562 -0.59252113 12 1
2.4759555 0.97281015 -0.51709241 1 2
2.3419747 0.91215575 -0.67344719 29 0
2.4517589 0.9539305 -0.60736787 4 1
2.3469465 0.90467161 -0.6739648 25 0
2.3484421 0.89537364 -0.67344719 22 0
2.2787545 1.0088533 -0.66775316 32 0
2.2787237 0.99934042 -0.66671789 37 0
2.2875133 0.99369079 -0.66827077 40 0
2.2874191 0.98417222 -0.66723549 40 0
2.2942245 0.97809601 -0.66827077 42 0
2.2887259 0.9663251 -0.66568261 43 0
2.2903028 0.95758539 -0.66516501 49 0
2.2905972 1.1206653 -0.68328232 3 0
2.304925 1.1177198 -0.68638813 3 0
2.3051364 1.1083963 -0.68535286 3 0
2.2965922 1.0949268 -0.68172938 5 0
2.3073871 1.0902053 -0.68379998 7 0
2.3129282 1.0829629 -0.68431759 9 0
2.2939129 1.0643132 -0.67758828 14 0
2.2870829 1.0514572 -0.67448246 19 0
2.2838881 1.0398659 -0.67241186 24 0
2.2841618 1.0299006 -0.67137665 25 0
2.4430826 1.1005286 -0.61861545 3 1
2.28263 1.0191573 -0.66982371 27 0
2.3563347 1.0510802 -0.59567046 8 1
2.4298444 1.0828537 -0.51709241 1 2
2.3489316 1.0389432 -0.59297103 18 1
2.3648138 1.0454733 -0.50259089 3 2
2.3346949 1.0229164 -0.58847201 23 1
2.3702476 1.0379992 -0.50297254 15 2
2.3257375 1.0093305 -0.58532268 27 1
2.3828611 1.033627 -0.50488061 42 2
2.3237014 0.99930227 -0.58397299 37 1
2.3738284 1.0198776 -0.50220931 56 2
2.328968 0.99194896 -0.58442289 43 1
2.3573272 1.0035404 -0.4980115 60 2
2.3360078 0.98532748 -0.58532268 52 1
2.3590064 0.99454337 -0.49762988 63 2
2.3430293 0.97866994 -0.58622253 94 1
2.3570287 0.98403436 -0.49648505 74 2
