# .PCD v0.7 - Point Cloud Data file format
VERSION 0.7
FIELDS x y z intensity ring
SIZE 4 4 4 4 2
TYPE F F F F U
COUNT 1 1 1 1 1
WIDTH 52
HEIGHT 1
VIEWPOINT 0 0 0 1 0 0 0
POINTS 52
DATA ascii
1.8762087 1.7879376 -0.41048408 6 3
1.9071265 1.7549211 -0.41048408 51 3
1.9071032 1.7432564 -0.40923262 33 3
1.8959281 1.8187648 -0.41611573 1 3
1.8907343 1.7898543 -0.41236129 27 3
1.901288 1.787303 -0.41329992 43 3
1.9060718 1.779307 -0.41298702 57 3
1.914029 1.773652 -0.41329992 78 3
1.9245728 1.7475466 -0.41173556 18 3
1.9570689 1.7646279 -0.41736722 1 3
1.8450481 1.7979939 -0.59477061 11 1
1.8002582 1.742745 -0.67137665 8 0
1.8446221 1.7844452 -0.59252113 20 1
1.8646345 1.8025451 -0.50411743 5 2
1.7996684 1.7294427 -0.66878843 10 0
1.8511505 1.7776718 -0.59252113 27 1
1.8694985 1.7946659 -0.50373578 27 2
1.7984072 1.7167948 -0.66620022 14 0
1.8499856 1.7647973 -0.59027159 32 1
1.809697 1.7161393 -0.66827077 17 0
1.8473396 1.7506117 -0.58757222 37 1
1.8856359 1.7862781 -0.50488061 60 2
1.8142707 1.708487 -0.66775316 21 0
1.8477628 1.7388099 -0.58577257 44 1
1.88614 1.7743037 -0.50335413 67 2
1.8216339 1.7034634 -0.66827077 24 0
1.8623645 1.7403321 -0.58847201 54 1
1.8794099 1.755648 -0.49991959 70 2
1.8222023 1.6915178 -0.66620022 25 0
1.8569993 1.7232175 -0.58487278 97 1
1.887272 1.7500821 -0.50030124 76 2
1.8280953 1.685147 -0.66620022 25 0
1.8747705 1.7269608 -0.58847201 67 1
1.8962575 1.7461438 -0.50106448 74 2
1.833673 1.6790761 -0.66620022 23 0
1.879048 1.7194201 -0.58802211 47 1
1.9005885 1.7385212 -0.50068283 61 2
1.846377 1.6794852 -0.66878843 20 0
1.8890661 1.7171112 -0.5893718 38 1
1.915062 1.7401304 -0.50297254 56 2
1.857963 1.6782091 -0.67085898 16 0
1.8979421 1.7131176 -0.59027159 34 1
1.9211249 1.7334346 -0.50297254 43 2
1.8537426 1.6626844 -0.66723549 12 0
1.9111657 1.7129859 -0.59252113 24 1
1.9346017 1.7218519 -0.59791994 19 1
1.9405133 1.7265053 -0.50488061 1 2
1.8863735 1.850502 -0.61006731 5 1
1.8777059 1.8285432 -0.50946003 1 2
1.882544 1.7952306 -0.50564384 49 2
1.9373988 1.7358891 -0.50564384 22 2
1.9537423 1.7267026 -0.60196906 8 1
