# .PCD v0.7 - Point Cloud Data file format
VERSION 0.7
FIELDS x y z intensity ring
SIZE 4 4 4 4 2
TYPE F F F F U
COUNT 1 1 1 1 1
WIDTH 58
HEIGHT 1
VIEWPOINT 0 0 0 1 0 0 0
POINTS 58
DATA ascii
1.601675 1.7151855 -0.37168834 1 3
1.5924715 1.6940322 -0.36824676 3 3
1.6051657 1.6956356 -0.36981112 19 3
1.6140958 1.6926003 -0.37043685 43 3
1.6049441 1.6712826 -0.3669953 51 3
1.6145959 1.6702123 -0.3679339 65 3
1.6215038 1.6662641 -0.36824676 39 3
1.6317483 1.6645423 -0.36918539 21 3
1.6486511 1.670082 -0.37168834 4 3
1.6564479 1.6558702 -0.45527029 1 2
1.6292982 1.6190941 -0.61547172 25 0
1.6399636 1.6285555 -0.53358394 9 1
1.6363155 1.6147534 -0.61598933 17 0
1.6764362 1.6428354 -0.62893027 8 0
1.5942807 1.7956811 -0.64342415 4 0
1.5950758 1.7846241 -0.64135361 5 0
1.5767403 1.7517632 -0.63151848 7 0
1.5607898 1.7219154 -0.62271863 12 0
1.5433475 1.6907746 -0.61340117 23 0
1.5561212 1.7035724 -0.53268409 4 1
1.5427035 1.6782653 -0.61081296 26 0
1.5686538 1.7053024 -0.53493363 18 1
1.5753201 1.711948 -0.45221734 1 2
1.5472395 1.6714525 -0.6102953 30 0
1.5587057 1.6826605 -0.52953482 33 1
1.5959654 1.7222787 -0.45641515 4 2
1.5556997 1.6688673 -0.61133063 40 0
1.5605816 1.6729348 -0.52818507 47 1
1.5939306 1.7080854 -0.45412543 15 2
1.5588708 1.6606101 -0.6102953 44 0
1.5647871 1.6663296 -0.52773523 56 1
1.5850941 1.6867739 -0.44992763 38 2
1.5537544 1.6441982 -0.6061542 49 0
1.5652387 1.6551931 -0.52593559 64 1
1.5825843 1.6729506 -0.44763795 49 2
1.5584381 1.6370935 -0.6056366 52 0
1.57907 1.6581872 -0.52863503 70 1
1.5873505 1.665718 -0.4472563 52 2
1.5681535 1.6358278 -0.60718954 61 0
1.5702977 1.6369188 -0.52368605 77 1
1.5945151 1.6615831 -0.44763795 82 2
1.5722275 1.6292286 -0.60667187 67 0
1.5703021 1.6260957 -0.52188647 81 1
1.5959232 1.6520514 -0.44649309 82 2
1.5816604 1.6281626 -0.60822481 53 0
1.5811197 1.6264682 -0.52368605 75 1
1.6109741 1.6566019 -0.44916439 56 2
1.5862665 1.6209735 -0.60770714 47 0
1.5963287 1.630688 -0.52683538 64 1
1.6156616 1.6492834 -0.44878277 41 2
1.590559 1.6140509 -0.60718954 44 0
1.6118743 1.6345381 -0.52998471 58 1
1.629681 1.6520199 -0.45107248 32 2
1.6029874 1.6153448 -0.60977769 41 0
1.6079568 1.6192231 -0.52683538 47 1
1.6451235 1.6560704 -0.45374379 14 2
1.6127127 1.6138394 -0.61133063 34 0
1.6204894 1.62049 -0.52908486 33 1
