# .PCD v0.7 - Point Cloud Data file format
VERSION 0.7
FIELDS x y z intensity ring
SIZE 4 4 4 4 2
TYPE F F F F U
COUNT 1 1 1 1 1
WIDTH 66
HEIGHT 1
VIEWPOINT 0 0 0 1 0 0 0
POINTS 66
DATA ascii
1.6651397 1.6564448 -0.3720012 25 3
1.6793439 1.6589513 -0.37387842 8 3
1.6364672 1.7094752 -0.37481701 1 3
1.6341972 1.6952202 -0.3729398 7 3
1.6524885 1.7022617 -0.37575564 34 3
1.6542784 1.6922449 -0.37481701 49 3
1.658789 1.6850525 -0.37450415 62 3
1.6632706 1.6778488 -0.37419128 67 3
1.6593478 1.6622467 -0.3720012 41 3
1.6229318 1.6172758 -0.61391884 48 0
1.6459732 1.6390939 -0.53628331 44 1
1.6557386 1.6482414 -0.45412543 59 2
1.6381789 1.6211132 -0.61754227 46 0
1.6419858 1.6237462 -0.53313404 37 1
1.6712549 1.6521136 -0.45679674 52 2
1.6493388 1.6208013 -0.61961281 43 0
1.6573762 1.6275629 -0.53628331 29 1
1.6742096 1.6435196 -0.45603353 33 2
1.6480732 1.6082885 -0.6170246 39 0
1.6700237 1.6285698 -0.53853285 20 1
1.6982113 1.6554815 -0.46099457 6 2
1.6578393 1.6065586 -0.61857754 30 0
1.6882973 1.634932 -0.54258198 9 1
1.6829257 1.6195152 -0.62582451 22 0
1.6941549 1.6189698 -0.62789506 13 0
1.7054015 1.6183649 -0.62996554 8 0
1.7026036 1.604454 -0.62685978 7 0
1.7110153 1.6011406 -0.62789506 8 0
1.7216954 1.6010199 -0.62996554 7 0
1.7670139 1.6316965 -0.64445943 5 0
1.5951543 1.7897329 -0.64238888 4 0
1.5652609 1.7438985 -0.62789506 8 0
1.5677549 1.7338516 -0.62634212 9 0
1.5731938 1.728918 -0.62634212 9 0
1.5792197 1.7234156 -0.62634212 11 0
1.578675 1.7107941 -0.62375391 13 0
1.5783588 1.6979214 -0.62116575 19 0
1.5803149 1.6881708 -0.61961281 25 0
1.6027182 1.7109058 -0.54123229 7 1
1.5835475 1.6798332 -0.61857754 30 0
1.5990247 1.6956568 -0.53808296 18 1
1.6182675 1.7148629 -0.45832324 2 2
1.5904396 1.6759735 -0.61909521 37 0
1.6009078 1.6858259 -0.53673327 25 1
1.6252971 1.7109108 -0.45870483 9 2
1.5842676 1.657842 -0.61443645 42 0
1.6040895 1.6774101 -0.53583348 30 1
1.6244733 1.6981339 -0.45679674 38 2
1.5860267 1.6481253 -0.61288351 43 0
1.6126372 1.6746091 -0.53673327 41 1
1.6249434 1.6867971 -0.45527029 60 2
1.5958037 1.6467406 -0.61443645 50 0
1.6103334 1.6605755 -0.53403383 52 1
1.6267209 1.6768869 -0.45412543 65 2
1.6028904 1.642544 -0.61495411 52 0
1.6133976 1.6521555 -0.53313404 58 1
1.6325632 1.6711994 -0.45412543 68 2
1.6086146 1.6369383 -0.61495411 59 0
1.6095898 1.6367878 -0.52998471 97 1
1.6218659 1.6486955 -0.44954604 72 2
1.607524 1.6244478 -0.6123659 64 0
1.6276349 1.6436207 -0.53403383 98 1
1.6289922 1.6444191 -0.44992763 74 2
1.613185 1.6188262 -0.6123659 54 0
1.6306099 1.63517 -0.53313404 51 1
1.6416554 1.6456718 -0.45183572 68 2
