# .PCD v0.7 - Point Cloud Data file format
VERSION 0.7
FIELDS x y z intensity ring
SIZE 4 4 4 4 2
TYPE F F F F U
COUNT 1 1 1 1 1
WIDTH 51
HEIGHT 1
VIEWPOINT 0 0 0 1 0 0 0
POINTS 51
DATA ascii
1.8419265 1.7837051 -0.40610394 1 3
1.8438705 1.7731565 -0.40516531 10 3
1.8640997 1.7316239 -0.40297523 43 3
1.8730371 1.7277845 -0.40360096 32 3
1.8877962 1.7292418 -0.40547815 19 3
1.8967441 1.7252997 -0.40610394 1 3
1.8194761 1.8017789 -0.59117138 8 1
1.8063016 1.7762882 -0.58487278 18 1
1.8214673 1.7905767 -0.49648505 1 2
1.8069146 1.7645255 -0.58307314 23 1
1.8347311 1.7910641 -0.49839315 11 2
1.8130624 1.7582078 -0.58307314 26 1
1.8370533 1.7802291 -0.49724829 38 2
1.7544249 1.6900904 -0.65274167 8 0
1.819495 1.7515503 -0.58307314 35 1
1.834769 1.7656373 -0.49495855 54 2
1.7645015 1.6879628 -0.65429455 9 0
1.8168426 1.7374264 -0.58037376 40 1
1.8338239 1.7524405 -0.49305046 58 2
1.8583102 1.7752197 -0.40704253 38 3
1.7728895 1.684764 -0.65532982 11 0
1.8172433 1.7257065 -0.57857412 49 1
1.8410487 1.7477019 -0.4934321 66 2
1.8659282 1.7700821 -0.4073554 55 3
1.7801651 1.6798908 -0.65584749 18 0
1.8243734 1.7210085 -0.57902408 58 1
1.8371383 1.7318372 -0.49076074 68 2
1.8703499 1.7625303 -0.40704253 75 3
1.7789696 1.6670619 -0.65325934 20 0
1.8306701 1.714309 -0.57902408 80 1
1.8417391 1.7240727 -0.49037915 74 2
1.8767985 1.755662 -0.40704253 93 3
1.7833641 1.6595255 -0.65274167 18 0
1.8323606 1.7039284 -0.57767433 56 1
1.8520601 1.7216427 -0.49152401 68 2
1.7919832 1.6559128 -0.65377688 13 0
1.8354344 1.6948774 -0.57677454 45 1
1.8695987 1.7258209 -0.49457693 60 2
1.8048692 1.6561786 -0.6563651 11 0
1.849957 1.6963629 -0.57947397 38 1
1.874164 1.7179581 -0.49419534 54 2
1.8177795 1.6563737 -0.65895331 8 0
1.8616309 1.6951425 -0.58127356 34 1
1.8786979 1.7100835 -0.49381369 42 2
1.8106577 1.6383535 -0.65429455 7 0
1.881694 1.7020326 -0.58577257 25 1
1.9006766 1.717997 -0.4980115 22 2
1.8175181 1.6336309 -0.65481222 5 0
1.8977727 1.7045686 -0.5889219 19 1
1.9063637 1.7116841 -0.4980115 1 2
1.9080739 1.7018256 -0.59027159 8 1
