# .PCD v0.7 - Point Cloud Data file format
VERSION 0.7
FIELDS x y z intensity ring
SIZE 4 4 4 4 2
TYPE F F F F U
COUNT 1 1 1 1 1
WIDTH 56
HEIGHT 1
VIEWPOINT 0 0 0 1 0 0 0
POINTS 56
DATA ascii
1.8572336 1.6982665 -0.39859506 1 3
1.8716282 1.700068 -0.40047228 6 3
1.8687495 1.6855863 -0.39859506 27 3
1.8775654 1.6816883 -0.39922079 50 3
1.8730923 1.6659341 -0.39703071 57 3
1.881857 1.6620013 -0.39765644 100 3
1.8921028 1.6593291 -0.39859506 59 3
1.8904339 1.6462294 -0.39703071 37 3
1.8991576 1.6422039 -0.39765644 24 3
1.91537 1.644572 -0.39984655 7 3
1.7806392 1.6196893 -0.64497709 15 0
1.7860001 1.613776 -0.64497709 21 0
1.8098093 1.5899571 -0.64549476 25 0
1.8153487 1.5836295 -0.64549476 25 0
1.8563656 1.7353348 -0.58667237 6 1
1.7706567 1.6448215 -0.64756525 7 0
1.8267065 1.695699 -0.57542485 15 1
1.8492438 1.7160207 -0.49037915 1 2
1.7849078 1.6464895 -0.65067112 9 0
1.8268827 1.6840293 -0.57362527 24 1
1.8581102 1.7122153 -0.49114239 7 2
1.7877949 1.6376396 -0.64963585 12 0
1.8356253 1.6802732 -0.57452506 30 1
1.8452463 1.6884899 -0.48618135 25 2
1.8426287 1.6754882 -0.57497495 37 1
1.8569416 1.6873192 -0.48770785 52 2
1.8441265 1.6651285 -0.57362527 41 1
1.8464961 1.6666814 -0.48351002 54 2
1.7988122 1.6139821 -0.64756525 24 0
1.8412225 1.6508751 -0.57092583 47 1
1.856688 1.6641573 -0.4846549 63 2
1.8044347 1.6076936 -0.64756525 25 0
1.842608 1.6405498 -0.56957608 54 1
1.861019 1.6563613 -0.48427325 66 2
1.8114831 1.6026649 -0.64808291 26 0
1.846863 1.6328176 -0.56912625 85 1
1.8594342 1.6433539 -0.48236516 72 2
1.8540163 1.627646 -0.56957608 65 1
1.8681103 1.6394436 -0.4831284 68 2
1.8640922 1.6250073 -0.57092583 47 1
1.8753023 1.634202 -0.48351002 64 2
1.8267065 1.5823419 -0.64756525 22 0
1.8727003 1.6210407 -0.57182562 42 1
1.8943571 1.6392072 -0.48694456 58 2
1.835147 1.5784768 -0.64860052 19 0
1.8724365 1.6094124 -0.57002604 36 1
1.9045335 1.6364244 -0.48808944 50 2
1.8400967 1.5727041 -0.64860052 14 0
1.8848923 1.6098505 -0.57227552 29 1
1.9096648 1.6304334 -0.48808944 34 2
1.8411567 1.5625207 -0.64704764 9 0
1.9009036 1.6120845 -0.57542485 21 1
1.927325 1.6339135 -0.49114239 7 2
1.8510321 1.5598185 -0.64860052 8 0
1.9199355 1.6167359 -0.57947397 11 1
1.8707923 1.5542651 -0.6517064 4 0
