# .PCD v0.7 - Point Cloud Data file format
VERSION 0.7
FIELDS x y z intensity ring
SIZE 4 4 4 4 2
TYPE F F F F U
COUNT 1 1 1 1 1
WIDTH 53
HEIGHT 1
VIEWPOINT 0 0 0 1 0 0 0
POINTS 53
DATA ascii
2.1246819 1.5453722 -0.41611573 1 3
2.0900242 1.509038 -0.40829399 4 3
2.1132052 1.5140224 -0.41173556 21 3
2.1313553 1.5157959 -0.41423854 39 3
2.1350198 1.5072072 -0.41392565 52 3
2.1289434 1.4918107 -0.41173556 65 3
2.1209066 1.4757172 -0.40923262 48 3
2.1355402 1.4754121 -0.41110981 30 3
2.1390488 1.4668312 -0.41079697 15 3
2.1490541 1.4626914 -0.41173556 1 3
2.0850396 1.3894962 -0.67137665 8 0
2.1667626 1.4434129 -0.60106927 6 1
2.0976906 1.3879057 -0.6739648 7 0
2.0947754 1.5591234 -0.60286885 4 1
2.0779943 1.535952 -0.59657025 11 1
2.1019073 1.5524931 -0.50793356 1 2
2.0678961 1.5168002 -0.59207124 20 1
2.0978143 1.5381806 -0.50564384 6 2
2.0700276 1.5072778 -0.59117138 26 1
2.0888844 1.5204518 -0.50220931 24 2
2.0207705 1.4617198 -0.66827077 22 0
2.0610621 1.4897691 -0.58712232 30 1
2.1037271 1.520049 -0.50449902 46 2
2.029253 1.456557 -0.6693061 22 0
2.059917 1.4780207 -0.58532268 34 1
2.1044972 1.5088968 -0.50335413 60 2
2.0296054 1.4461012 -0.66775316 24 0
2.0684948 1.4727217 -0.58622253 41 1
2.0953565 1.4912957 -0.49991959 63 2
2.031486 1.4367771 -0.66671789 24 0
2.0752149 1.4666164 -0.58667237 49 1
2.0909281 1.477176 -0.49762988 63 2
2.0333269 1.4274564 -0.66568261 24 0
2.0851073 1.4627216 -0.58802211 70 1
2.1008942 1.4732493 -0.49877474 72 2
2.0428035 1.4240205 -0.66723549 23 0
2.0787528 1.4480027 -0.58487278 53 1
2.1089902 1.4685185 -0.49953794 68 2
2.0475152 1.417238 -0.66723549 18 0
2.0787354 1.4377751 -0.58352309 39 1
2.1170785 1.4637492 -0.50030124 59 2
2.0651875 1.4188342 -0.67137665 15 0
2.1014144 1.442642 -0.58847201 34 1
2.1173186 1.4530182 -0.49915636 51 2
2.0605514 1.4050859 -0.66827077 12 0
2.1128778 1.4396886 -0.59027159 25 1
2.1272459 1.4489336 -0.50030124 39 2
2.0672872 1.398607 -0.66878843 11 0
2.1291904 1.4399457 -0.59342092 21 1
2.1439285 1.4488225 -0.50297254 19 2
2.0817802 1.3978435 -0.67189431 9 0
2.1344535 1.4321326 -0.59342092 13 1
2.1685386 1.4544522 -0.50755197 1 2
