# .PCD v0.7 - Point Cloud Data file format
VERSION 0.7
FIELDS x y z intensity ring
SIZE 4 4 4 4 2
TYPE F F F F U
COUNT 1 1 1 1 1
WIDTH 58
HEIGHT 1
VIEWPOINT 0 0 0 1 0 0 0
POINTS 58
DATA ascii
1.9392693 1.7578062 -0.41455138 2 3
1.9586071 1.7629205 -0.41736722 15 3
1.9556072 1.7485151 -0.41549 38 3
1.960222 1.7403661 -0.41517711 50 3
1.9606593 1.7279462 -0.41392565 51 3
1.9696525 1.7236928 -0.41455138 32 3
1.9771472 1.7181041 -0.41486427 11 3
2.0423462 1.6680743 -0.70657599 5 0
1.8769209 1.8412291 -0.70450544 4 0
1.8822721 1.8329899 -0.70398778 4 0
1.848238 1.7625158 -0.68431759 16 0
1.8487687 1.7507396 -0.68224704 16 0
1.8573781 1.7472471 -0.68328232 17 0
1.8592302 1.7367971 -0.68172938 22 0
1.9074358 1.7805802 -0.60241896 2 1
1.8596169 1.7250409 -0.67965883 25 0
1.9093508 1.769938 -0.60106927 11 1
1.8670483 1.7198474 -0.68017644 27 0
1.8940114 1.7434647 -0.59432071 21 1
1.9228719 1.7694099 -0.50793356 4 2
1.8787409 1.7185366 -0.68224704 32 0
1.8986477 1.7355274 -0.59387082 31 1
1.9333844 1.7666606 -0.50907844 23 2
1.8850274 1.7116387 -0.68224704 37 0
1.8960361 1.7210311 -0.59117138 35 1
1.9325752 1.7529677 -0.50717038 46 2
1.8809481 1.6959921 -0.67862362 42 0
1.9124652 1.723202 -0.59432071 43 1
1.937224 1.7448965 -0.50678873 60 2
1.8882953 1.6907051 -0.67914116 45 0
1.9138132 1.7129511 -0.59297103 49 1
1.9359862 1.7315801 -0.50488061 65 2
1.8953357 1.6857175 -0.67965883 51 0
1.9124984 1.6997868 -0.59072149 70 1
1.9358473 1.7199341 -0.50335413 70 2
1.9058458 1.6825954 -0.68121177 47 0
1.9111143 1.6866535 -0.58847201 58 1
1.9509727 1.7206194 -0.50564384 70 2
1.9204229 1.6835738 -0.68431759 41 0
1.931942 1.6924783 -0.59297103 43 1
1.9451507 1.7034515 -0.50259089 60 2
1.9204601 1.6717858 -0.68224704 39 0
1.943718 1.6908416 -0.59477061 34 1
1.9555298 1.7005157 -0.50373578 51 2
1.9160539 1.6562282 -0.67862362 31 0
1.959932 1.692963 -0.59791994 25 1
1.9733418 1.7039434 -0.50678873 33 2
1.9379474 1.6633717 -0.68431759 27 0
1.9554757 1.6772296 -0.59477061 19 1
1.9807671 1.6983242 -0.50717038 6 2
1.9569752 1.6678743 -0.68897635 22 0
1.9731869 1.6805023 -0.59836984 8 1
1.9613101 1.6597854 -0.68845868 15 0
2.0251694 1.7126127 -0.61231679 1 1
1.9641343 1.6504428 -0.68742341 9 0
1.9773008 1.6497644 -0.69001162 8 0
1.9860222 1.6453174 -0.69104689 8 0
2.000705 1.645739 -0.69415271 8 0
