# .PCD v0.7 - Point Cloud Data file format
VERSION 0.7
FIELDS x y z intensity ring
SIZE 4 4 4 4 2
TYPE F F F F U
COUNT 1 1 1 1 1
WIDTH 58
HEIGHT 1
VIEWPOINT 0 0 0 1 0 0 0
POINTS 58
DATA ascii
1.7887288 1.8875643 -0.3192977 1 4
1.7840163 1.8701316 -0.31734779 10 4
1.7932844 1.8667555 -0.31783527 30 4
1.7887475 1.8490707 -0.31588537 42 4
1.7965769 1.8442371 -0.31612909 43 4
1.7999026 1.835435 -0.31564164 28 4
1.8146671 1.8376163 -0.31710407 9 4
1.8175569 1.816923 -0.40704253 11 3
1.7914467 1.7802272 -0.58307314 34 1
1.8151667 1.8025399 -0.49724829 23 2
1.8118334 1.7873344 -0.58757222 25 1
1.8284378 1.8030849 -0.49915636 6 2
1.8236291 1.7864542 -0.5893718 20 1
1.83513 1.7858328 -0.59117138 8 1
1.8567669 1.7943127 -0.5961203 5 1
1.8475528 1.7729776 -0.59117138 4 1
1.8844532 1.7964236 -0.60106927 4 1
1.9048649 1.803231 -0.60556829 4 1
1.749668 1.9672377 -0.60781777 3 1
1.7366829 1.9396478 -0.60106927 4 1
1.7300588 1.9194025 -0.59657025 6 1
1.7262688 1.9018093 -0.59297103 6 1
1.7315825 1.894333 -0.59252113 7 1
1.7263068 1.8753728 -0.58847201 15 1
1.7219203 1.8582023 -0.58487278 23 1
1.7580912 1.8959099 -0.50259089 5 2
1.7204185 1.8436321 -0.58217335 26 1
1.7482927 1.8728473 -0.4980115 21 2
1.7503062 1.8736929 -0.40610394 1 3
1.7241741 1.8347756 -0.58127356 35 1
1.7521297 1.8638728 -0.49724829 42 2
1.7473611 1.8575004 -0.40391383 9 3
1.7332466 1.8315772 -0.58217335 37 1
1.7451292 1.8434876 -0.4934321 54 2
1.7701361 1.8685989 -0.40766826 31 3
1.7393113 1.8258191 -0.58217335 40 1
1.7498779 1.8362694 -0.49305046 63 2
1.7722336 1.8584294 -0.40672967 55 3
1.7372633 1.8116026 -0.57947397 50 1
1.7491626 1.8233721 -0.49114239 64 2
1.7674422 1.8411423 -0.40422669 59 3
1.7381619 1.7999196 -0.57767433 60 1
1.7599263 1.8211846 -0.49228725 72 2
1.7714318 1.8318125 -0.40360096 70 3
1.7488234 1.7977277 -0.57902408 72 1
1.7594273 1.8079948 -0.49037915 74 2
1.7847065 1.8326935 -0.40516531 81 3
1.7575027 1.7947025 -0.57992387 54 1
1.7654127 1.8021508 -0.49037915 64 2
1.7907746 1.8267646 -0.40516531 55 3
1.7689165 1.7944163 -0.58172351 46 1
1.7782722 1.8032755 -0.49228725 57 2
1.7857221 1.8095682 -0.40266237 45 3
1.769367 1.7830068 -0.57992387 40 1
1.7983884 1.810989 -0.49610341 55 2
1.7972822 1.8092415 -0.40391383 28 3
1.7797122 1.7809556 -0.58127356 38 1
1.8043845 1.8050148 -0.49610341 42 2
