# .PCD v0.7 - Point Cloud Data file format
VERSION 0.7
FIELDS x y z intensity ring
SIZE 4 4 4 4 2
TYPE F F F F U
COUNT 1 1 1 1 1
WIDTH 58
HEIGHT 1
VIEWPOINT 0 0 0 1 0 0 0
POINTS 58
DATA ascii
2.5400527 1.0427879 -0.43488789 1 3
2.4832878 1.0093683 -0.4245632 5 3
2.4794657 0.99774468 -0.42331171 19 3
2.4866037 0.99054497 -0.42393744 28 3
2.4957309 0.98359787 -0.42487606 30 3
2.510191 0.97918683 -0.42675328 18 3
2.5042109 0.96729898 -0.42518893 6 3
2.4081628 0.99109864 -0.69777614 39 0
2.4403784 1.0033612 -0.60916752 34 1
2.4623623 1.0118977 -0.517474 20 2
2.4080296 0.98122907 -0.69674093 43 0
2.4402564 0.99336648 -0.60826772 47 1
2.4586053 1.0003371 -0.51594758 35 2
2.4114401 0.97281682 -0.69674093 48 0
2.429249 0.97901541 -0.6046685 54 1
2.4639034 0.99248177 -0.51632917 46 2
2.4184091 0.96582687 -0.69777614 53 0
2.4236019 0.96691859 -0.60241896 70 1
2.4709997 0.98532993 -0.51709241 61 2
2.4255266 0.95837575 -0.69881141 66 0
2.4342115 0.96131754 -0.60421854 70 1
2.4654636 0.97266364 -0.51518428 72 2
2.4234595 0.94779283 -0.69725859 53 0
2.4413495 0.95380574 -0.60511833 55 1
2.4706724 0.9647662 -0.51556593 55 2
2.4157801 0.93556565 -0.69415271 45 0
2.4481337 0.94711155 -0.60601819 48 1
2.4811823 0.95940059 -0.51709241 38 2
2.4314959 0.93239051 -0.69777614 39 0
2.4549005 0.94038266 -0.60691798 40 1
2.4861841 0.95186865 -0.517474 25 2
2.4509919 0.93006527 -0.70243496 35 0
2.45999 0.93249893 -0.60736787 26 1
2.5151947 0.95292175 -0.52281672 7 2
2.4542232 0.92150456 -0.70243496 30 0
2.4760027 0.92869633 -0.6105172 13 1
2.4501808 0.91024148 -0.70036435 24 0
2.504807 0.92954028 -0.61681581 2 1
2.4696631 0.90768051 -0.70502311 16 0
2.4782627 0.90103501 -0.70657599 8 0
2.4850292 0.8936857 -0.70761132 6 0
2.4917736 0.88630116 -0.7086466 6 0
2.5800083 0.89744329 -0.73194027 3 0
2.6087003 0.89723009 -0.73918724 3 0
2.6136456 0.88873982 -0.73970485 3 0
2.4381819 1.0830011 -0.71485823 4 0
2.4260335 1.0674806 -0.71019953 7 0
2.4348729 1.0617456 -0.71175241 8 0
2.4153264 1.043704 -0.70502311 9 0
2.4191353 1.0348449 -0.70502311 11 0
2.420954 1.0256412 -0.70450544 22 0
2.4281225 1.0276773 -0.60871756 2 1
2.4227378 1.0164361 -0.70398778 26 0
2.4297199 1.0188667 -0.60826772 11 1
2.4825792 1.0400137 -0.52319831 1 2
2.4207439 1.0061715 -0.70243496 30 0
2.435061 1.011127 -0.60871756 25 1
2.4751348 1.0272593 -0.52090853 5 2
