# .PCD v0.7 - Point Cloud Data file format
VERSION 0.7
FIELDS x y z intensity ring
SIZE 4 4 4 4 2
TYPE F F F F U
COUNT 1 1 1 1 1
WIDTH 62
HEIGHT 1
VIEWPOINT 0 0 0 1 0 0 0
POINTS 62
DATA ascii
2.0817297 1.7075207 -0.42644039 32 3
2.0981014 1.7093415 -0.4286305 14 3
2.0516124 1.7435918 -0.42644039 1 3
2.0637255 1.741515 -0.42769188 9 3
2.0831137 1.7460828 -0.43050769 38 3
2.0767481 1.7290534 -0.42800474 48 3
2.0724123 1.712622 -0.42581466 48 3
2.0252571 1.6523498 -0.70036435 35 0
2.0492947 1.6713641 -0.6105172 36 1
2.0818853 1.6967348 -0.52205342 58 2
2.0307257 1.6456242 -0.70036435 31 0
2.0642033 1.6715581 -0.61321658 25 1
2.0875001 1.6898221 -0.52205342 38 2
2.0274274 1.631259 -0.69725859 29 0
2.0773275 1.6708109 -0.61546612 19 1
2.1040986 1.6911341 -0.52472478 7 2
2.0403712 1.6305573 -0.69984674 28 0
2.0968516 1.6744946 -0.61951524 7 1
2.047564 1.6246252 -0.70036435 24 0
2.0620432 1.6250023 -0.70347023 23 0
2.0737894 1.6225556 -0.70554072 19 0
2.0763898 1.6129361 -0.70450544 14 0
2.1171913 1.6328136 -0.71641117 9 0
2.1596913 1.6535991 -0.72883451 3 0
2.182657 1.6585296 -0.73452848 3 0
1.9712695 1.8375967 -0.72210521 6 0
1.9634955 1.8175806 -0.71692878 7 0
1.9737777 1.8149827 -0.71848166 9 0
1.9729687 1.8015679 -0.71589351 8 0
1.9749517 1.7907777 -0.71434063 9 0
1.9754485 1.7787015 -0.71227002 17 0
1.9614829 1.7537687 -0.70502311 24 0
1.9603699 1.7404976 -0.70243496 25 0
1.9617839 1.7301542 -0.70088202 26 0
1.9721709 1.7271143 -0.70243496 30 0
2.0281494 1.7748848 -0.62221462 1 1
1.9723569 1.7151484 -0.70036435 36 0
2.0181508 1.7537354 -0.61726576 11 1
1.9680971 1.6994146 -0.69674093 39 0
2.0224807 1.7457594 -0.61681581 22 1
2.0485647 1.7670255 -0.52586961 2 2
1.9678558 1.6878482 -0.69467032 37 0
2.0300422 1.7399567 -0.61726576 29 1
2.0469587 1.753836 -0.52396154 17 2
1.9769707 1.6831298 -0.69570565 39 0
2.0242314 1.7227551 -0.61366653 37 1
2.0473905 1.7412347 -0.52243507 45 2
1.9857841 1.6787133 -0.69674093 39 0
2.0230885 1.7090371 -0.611417 43 1
2.0504565 1.7315437 -0.52167183 57 2
1.9957788 1.6758454 -0.69829381 42 0
2.0332229 1.7060772 -0.61276674 50 1
2.0426495 1.7133797 -0.51823723 62 2
2.0013249 1.6692183 -0.69829381 42 0
2.0478513 1.7068107 -0.61546612 64 1
2.0486176 1.7062395 -0.51823723 67 2
1.9999894 1.6557118 -0.69570565 37 0
2.0405793 1.6881144 -0.611417 57 1
2.057884 1.7012206 -0.51900047 71 2
2.0075374 1.649596 -0.69622326 36 0
2.0437405 1.6781511 -0.6105172 39 1
2.068363 1.6977632 -0.52014536 66 2
