# .PCD v0.7 - Point Cloud Data file format
VERSION 0.7
FIELDS x y z intensity ring
SIZE 4 4 4 4 2
TYPE F F F F U
COUNT 1 1 1 1 1
WIDTH 50
HEIGHT 1
VIEWPOINT 0 0 0 1 0 0 0
POINTS 50
DATA ascii
2.7816525 1.7408706 -0.17197597 27 6
2.7823203 1.7284755 -0.17166196 40 6
2.7849369 1.7166561 -0.17145261 48 6
2.7943196 1.7090092 -0.17166196 49 6
2.7985609 1.6982079 -0.17155728 45 6
2.8027594 1.6874005 -0.17145261 36 6
2.8120623 1.6796544 -0.17166196 19 6
2.7307477 1.7794722 -0.5162338 7 3
2.7269888 1.763495 -0.51435655 21 3
2.7843697 1.7992225 -0.40704364 1 4
2.7211862 1.7469715 -0.5121665 28 3
2.7435377 1.7599667 -0.40021896 33 4
2.7239361 1.7353386 -0.51154077 33 3
2.7429657 1.7461159 -0.39924401 60 4
2.7567165 1.7541934 -0.28587085 3 5
2.7146497 1.716794 -0.50872493 41 3
2.7453842 1.73489 -0.3987565 77 4
2.7611377 1.7434967 -0.28569651 25 5
2.7212219 1.7063572 -0.50872493 46 3
2.7368865 1.7148491 -0.39656287 90 4
2.764133 1.7312492 -0.28534791 32 5
2.7251883 1.6962807 -0.50841206 48 3
2.7257011 1.6952802 -0.39412549 92 4
2.7701588 1.7215904 -0.28534791 46 5
2.7310925 1.6867583 -0.50841206 60 3
2.7349811 1.6878397 -0.39461297 100 4
2.7741566 1.7113492 -0.28517357 50 5
2.7335956 1.6751497 -0.50778633 72 3
2.7374701 1.6762099 -0.39412549 100 4
2.7665191 1.6933335 -0.28377908 58 5
2.7360499 1.6635455 -0.5071606 78 3
2.7500911 1.6707662 -0.39510044 100 4
2.7775216 1.6867694 -0.28430203 54 5
2.735075 1.6499026 -0.50590914 61 3
2.7593055 1.6632079 -0.39558792 100 4
2.7868063 1.6791196 -0.28465065 48 5
2.761158 1.652518 -0.50966352 56 3
2.7599838 1.6505088 -0.39485672 85 4
2.8012016 1.6744922 -0.28552222 41 5
2.7686071 1.6438801 -0.50997645 52 3
2.7708504 1.6439024 -0.39558792 80 4
2.8190243 1.6718202 -0.28674239 28 5
2.7743287 1.6342051 -0.50997645 48 3
2.7868361 1.6402625 -0.39705035 65 4
2.821409 1.6599483 -0.28639376 10 5
2.7800159 1.6245115 -0.50997645 41 3
2.8131161 1.6425351 -0.39997521 55 4
2.792506 1.6187594 -0.51122791 31 3
2.8257031 1.6366857 -0.40095019 15 4
2.8341012 1.6296799 -0.51779813 21 3
