# .PCD v0.7 - Point Cloud Data file format
VERSION 0.7
FIELDS x y z intensity ring
SIZE 4 4 4 4 2
TYPE F F F F U
COUNT 1 1 1 1 1
WIDTH 109
HEIGHT 1
VIEWPOINT 0 0 0 1 0 0 0
POINTS 109
DATA ascii
1.2218428 1.6542436 -0.25251329 6 4
1.2285061 1.6517758 -0.25275704 21 4
1.2176015 1.6252352 -0.24934469 36 4
1.2357936 1.6483184 -0.18023807 14 5
1.2223538 1.6191777 -0.24910097 42 4
1.2294816 1.6162667 -0.24934469 46 4
1.2475569 1.639433 -0.18023807 49 5
1.2363237 1.6135408 -0.24958843 53 4
1.2484242 1.6287427 -0.17954083 54 5
1.2395233 1.6060719 -0.24910097 53 4
1.2504481 1.6196446 -0.1790179 51 5
1.2439032 1.6001683 -0.24885722 48 4
1.2597638 1.6199878 -0.17954083 42 5
1.2458104 1.5911273 -0.248126 38 4
1.2678685 1.6187174 -0.17988946 25 5
1.2599612 1.5976802 -0.24983218 28 4
1.268677 1.5983782 -0.25056338 18 4
1.2829251 1.604794 -0.25226957 4 4
1.2277992 1.6745068 -0.25495067 1 4
1.2328358 1.6679068 -0.18145825 1 5
1.2312222 1.6542201 -0.1804124 2 5
1.2514349 1.6564953 -0.18163256 33 5
1.277213 1.6189749 -0.1804124 8 5
1.257552 1.5320587 -0.5310967 41 0
1.2799444 1.5587859 -0.46564874 19 1
1.2801244 1.5485053 -0.53834367 31 0
1.2906191 1.5600895 -0.46744832 3 1
1.2939028 1.5546459 -0.54196709 16 0
1.3176624 1.5725574 -0.54973167 3 0
1.1521 1.6459808 -0.53834367 3 0
1.1578388 1.6419489 -0.53834367 9 0
1.1674145 1.6543037 -0.46744832 2 1
1.1523747 1.6221485 -0.5331673 24 0
1.1731824 1.6502181 -0.46744832 7 1
1.1614025 1.6228291 -0.53472012 34 0
1.1585109 1.6175952 -0.45935008 20 1
1.1625409 1.6124973 -0.53264964 44 0
1.1672889 1.6184859 -0.4606998 34 1
1.1960844 1.6571925 -0.39726433 6 2
1.19451 1.6544025 -0.32319364 1 3
1.1633422 1.6023798 -0.53057909 50 0
1.1717855 1.6128252 -0.46024987 46 1
1.1958017 1.6452768 -0.39535624 14 2
1.1863341 1.6310532 -0.3194392 6 3
1.1566603 1.5809546 -0.52488506 53 0
1.1728041 1.6024351 -0.45845029 47 1
1.1948642 1.6313795 -0.39306656 24 2
1.2016469 1.6394395 -0.32194218 21 3
1.1587331 1.5722423 -0.52333212 57 0
1.1775131 1.5965571 -0.45800036 50 1
1.2075444 1.6366776 -0.39535624 31 2
1.2026688 1.628879 -0.32069072 37 3
1.1708479 1.5776993 -0.526438 61 0
1.1758302 1.5832564 -0.45530099 54 1
1.2035984 1.6200571 -0.39230329 39 2
1.2021712 1.6169552 -0.31912637 53 3
1.1714479 1.5676174 -0.52436739 64 0
1.1787387 1.576228 -0.45440114 60 1
1.2080703 1.6142738 -0.3919217 49 2
1.2122624 1.6192846 -0.32037783 65 3
1.1795095 1.5664003 -0.52540272 73 0
1.1833365 1.57034 -0.45395127 62 1
1.2068861 1.6004304 -0.38963199 54 2
1.21462 1.6100999 -0.3194392 72 3
1.1759013 1.5497545 -0.52126157 73 0
1.1914406 1.5690964 -0.45485106 70 1
1.2077156 1.589954 -0.38810554 59 2
1.2229035 1.6087828 -0.32006493 83 3
1.1789572 1.5425707 -0.5202263 75 0
1.1992788 1.5680236 -0.45575085 100 1
1.2216088 1.5966434 -0.39077684 100 2
1.2129005 1.5841142 -0.31599763 81 3
1.1890488 1.544569 -0.52229685 77 0
1.1964189 1.5530223 -0.45260155 90 1
1.2247782 1.5892591 -0.39001361 100 2
1.2184217 1.5798715 -0.31599763 80 3
1.199168 1.5465158 -0.52436739 73 0
1.205417 1.5534551 -0.45395127 74 1
1.2315224 1.5865245 -0.39039519 67 2
1.2227176 1.5740486 -0.3156848 78 3
1.2105042 1.5499333 -0.5269556 69 0
1.2120318 1.5507734 -0.45440114 58 1
1.2370518 1.582217 -0.39039519 46 2
1.235508 1.5791059 -0.31756201 73 3
1.2099353 1.5381063 -0.52436739 62 0
1.2186435 1.5480641 -0.45485106 57 1
1.2389239 1.5732616 -0.3892504 40 2
1.2495716 1.5856436 -0.3197521 63 3
1.2123629 1.5312687 -0.52333212 61 0
1.2356025 1.5595026 -0.45935008 54 1
1.2523971 1.5801314 -0.3919217 33 2
1.248409 1.5739723 -0.31818774 53 3
1.2276052 1.5388962 -0.52747321 60 0
1.2349615 1.5475637 -0.45710057 53 1
1.2618551 1.5801333 -0.39306656 26 2
1.2566361 1.572472 -0.31881347 43 3
1.2365999 1.5391194 -0.52902615 57 0
1.240625 1.5430272 -0.45710057 51 1
1.2747462 1.5848974 -0.39535624 20 2
1.2720258 1.580387 -0.32131645 23 3
1.2480401 1.5423031 -0.53161436 52 0
1.251866 1.5464776 -0.45935008 42 1
1.2777981 1.5773878 -0.39459303 10 2
1.2822347 1.5822985 -0.32256791 2 3
1.2458267 1.5291693 -0.52850848 46 0
1.2695711 1.557202 -0.4638491 32 1
1.2941898 1.5868343 -0.3980276 1 2
1.1859342 1.6936901 -0.47734618 1 1
1.2131604 1.6932765 -0.40489674 1 2
