# .PCD v0.7 - Point Cloud Data file format
VERSION 0.7
FIELDS x y z intensity ring
SIZE 4 4 4 4 2
TYPE F F F F U
COUNT 1 1 1 1 1
WIDTH 130
HEIGHT 1
VIEWPOINT 0 0 0 1 0 0 0
POINTS 130
DATA ascii
1.003183 1.7037472 -0.24276376 1 4
0.9875564 1.6645591 -0.23764524 4 4
0.99539894 1.6645089 -0.23813272 12 4
1.030036 1.7217467 -0.17553167 1 5
1.0091095 1.6748012 -0.24008264 36 4
1.0164913 1.6857231 -0.17221974 5 5
1.0159795 1.6729654 -0.24032637 48 4
1.0192647 1.6770571 -0.17169681 19 5
1.0187037 1.6643296 -0.23959514 60 4
1.0271944 1.6768866 -0.17204544 36 5
1.0407301 1.6976532 -0.10435791 1 6
1.0112447 1.6386236 -0.23642655 68 4
1.0340886 1.6749859 -0.17221974 46 5
1.0414013 1.6855142 -0.10383455 4 6
1.0124801 1.628518 -0.23545158 70 4
1.0367711 1.6662914 -0.17169681 48 5
1.0480399 1.6837473 -0.10393922 8 6
1.022375 1.6317023 -0.23642655 76 4
1.0338254 1.6493388 -0.17030232 52 5
1.0560341 1.6834624 -0.10414857 8 6
1.0344232 1.6381946 -0.23788899 76 4
1.0385128 1.6440355 -0.17012802 48 5
1.0640382 1.6831424 -0.10435791 4 6
1.0380043 1.6312239 -0.2374015 68 4
1.054944 1.657208 -0.17187113 42 5
1.0613223 1.6659418 -0.10352053 2 6
1.0415479 1.6242496 -0.23691402 61 4
1.0574954 1.6484841 -0.17134818 28 5
1.075762 1.6756735 -0.10435791 1 6
1.0439795 1.6156018 -0.23618281 54 4
1.0697334 1.6548216 -0.17239405 21 5
1.0593618 1.626919 -0.23837645 49 4
1.075503 1.6510777 -0.17239405 8 5
1.0639449 1.6215518 -0.23813272 35 4
1.0736948 1.6246388 -0.23910768 12 4
1.086382 1.7867848 -0.10959151 1 6
1.0604329 1.5846548 -0.51090884 31 0
1.0659244 1.5916573 -0.4422538 48 1
1.0839777 1.6180041 -0.37856507 12 2
1.0857389 1.61941 -0.30880168 5 3
1.0681181 1.5841467 -0.51194406 29 0
1.0801929 1.6008507 -0.44585302 40 1
1.0973076 1.6256012 -0.3812364 5 2
1.079877 1.5901853 -0.51504993 25 0
1.0822098 1.5924243 -0.44450331 27 1
1.0884166 1.5913789 -0.51660281 20 0
1.0885849 1.590435 -0.4449532 10 1
1.0994462 1.5955235 -0.51919103 15 0
1.1206816 1.6251278 -0.45575085 1 1
1.1292453 1.6265889 -0.53057909 8 0
0.9897424 1.7529331 -0.46474889 1 1
0.96817577 1.7029139 -0.52488506 7 0
0.9531455 1.6751163 -0.4449532 1 1
0.96354729 1.6810869 -0.51919103 13 0
0.95898741 1.6717787 -0.4449532 7 1
0.95877755 1.6593139 -0.51349699 21 0
0.96774423 1.6734817 -0.44630292 21 1
1.0096543 1.7452542 -0.3919217 1 2
0.96067476 1.6492796 -0.51142645 24 0
0.96867162 1.6616764 -0.44405341 30 1
0.9939819 1.7044084 -0.38352609 6 2
0.96188331 1.6480477 -0.3022314 1 3
0.96251231 1.6392531 -0.5093559 26 0
0.9685427 1.6482038 -0.44135401 43 1
0.98898041 1.6823114 -0.37932828 14 2
0.97965086 1.6651106 -0.30598584 6 3
0.96626097 1.6325581 -0.50832063 27 0
0.9690392 1.6365986 -0.4391045 54 1
0.99084306 1.6720933 -0.37780184 24 2
0.986175 1.6635518 -0.3062987 22 3
0.97364885 1.6326631 -0.5093559 32 0
0.97075081 1.6265128 -0.43730488 60 1
0.99034423 1.6586841 -0.37551212 31 2
0.9970417 1.668578 -0.30786306 45 3
0.97337002 1.6193202 -0.50625008 39 0
0.97714305 1.6249549 -0.43775478 62 1
0.98600447 1.6383959 -0.37169594 34 2
1.0025692 1.6652627 -0.30786306 58 3
0.97373039 1.6078215 -0.50366187 42 0
0.98381984 1.6232004 -0.43820468 68 1
0.99448568 1.6401538 -0.37284079 37 2
0.99300468 1.6364211 -0.30317003 59 3
0.98565805 1.6141341 -0.50676769 44 0
0.98440003 1.6114415 -0.43595517 70 1
1.0015148 1.6381725 -0.37322241 43 2
0.99796462 1.6310858 -0.30285716 67 3
0.98824841 1.6057482 -0.50521481 47 0
0.98723412 1.6028447 -0.43460545 74 1
1.0061969 1.6329954 -0.37284079 44 2
1.006763 1.6326362 -0.30379578 83 3
0.99384797 1.6022886 -0.50521481 48 0
0.99151605 1.5979065 -0.43415555 84 1
1.0067128 1.6211338 -0.3709327 46 2
1.0080023 1.6225767 -0.3025443 78 3
0.99608517 1.5940688 -0.50366187 51 0
0.99708742 1.5944359 -0.43415555 84 1
1.0068774 1.6094643 -0.36902463 48 2
1.0126107 1.6173745 -0.3022314 85 3
1.0016423 1.5905828 -0.50366187 50 0
1.0068035 1.59754 -0.43595517 86 1
1.0156293 1.6109226 -0.37016946 58 2
1.0140343 1.6071472 -0.30097994 83 3
1.008224 1.5887074 -0.50417954 48 0
1.0102839 1.590726 -0.43505538 84 1
1.0275638 1.6173099 -0.3724592 52 2
1.0228174 1.6085987 -0.30191854 76 3
1.0148046 1.5868058 -0.50469714 46 0
1.0105784 1.5789829 -0.43280587 79 1
1.0384964 1.62198 -0.37436727 47 2
1.0294924 1.6066817 -0.3022314 72 3
1.0245231 1.5897493 -0.50676769 45 0
1.0203092 1.5819961 -0.43460545 77 1
1.0388296 1.6100968 -0.3724592 40 2
1.0436671 1.616354 -0.30473438 67 3
1.0279622 1.5829227 -0.50573242 45 0
1.0364435 1.5947654 -0.4391045 66 1
1.0465842 1.6097523 -0.37322241 37 2
1.0493017 1.6127018 -0.30473438 57 3
1.034539 1.5809417 -0.50625008 42 0
1.043072 1.5927677 -0.43955439 62 1
1.0586518 1.6159428 -0.37551212 34 2
1.0495098 1.600769 -0.30317003 50 3
1.0485584 1.5902234 -0.51039118 41 0
1.0397643 1.5762861 -0.43595517 57 1
1.0664489 1.6155148 -0.37627536 25 2
1.0613441 1.60717 -0.30504724 42 3
1.0548953 1.5883465 -0.51090884 39 0
1.0495746 1.5791391 -0.43775478 54 1
1.0804969 1.6250479 -0.37932828 20 2
1.080079 1.6231904 -0.30880168 22 3
