# .PCD v0.7 - Point Cloud Data file format
VERSION 0.7
FIELDS x y z intensity ring
SIZE 4 4 4 4 2
TYPE F F F F U
COUNT 1 1 1 1 1
WIDTH 135
HEIGHT 1
VIEWPOINT 0 0 0 1 0 0 0
POINTS 135
DATA ascii
1.082517 1.6139956 -0.23862019 93 4
1.0926136 1.6278206 -0.1715225 53 5
1.1036484 1.643023 -0.10372987 48 6
1.0839778 1.603439 -0.23764524 93 4
1.0971726 1.6223466 -0.17134818 51 5
1.1104969 1.6408143 -0.10383455 42 6
1.0884504 1.5980051 -0.2374015 84 4
1.1129258 1.6333257 -0.17291699 43 5
1.1094661 1.6270273 -0.10320652 29 6
1.0962688 1.5974692 -0.23788899 78 4
1.1197484 1.6310731 -0.17309129 34 5
1.1298417 1.6445448 -0.10456725 17 6
1.1018388 1.5936325 -0.23788899 68 4
1.1243014 1.6255161 -0.17291699 25 5
1.1196618 1.6175995 -0.10310185 2 6
1.1150575 1.6013736 -0.23959514 60 4
1.1319628 1.6250486 -0.17326561 14 5
1.1192217 1.596042 -0.23935141 48 4
1.1433514 1.6292417 -0.17413718 2 5
1.1202041 1.5856404 -0.23837645 23 4
1.1464516 1.6108317 -0.24276376 4 4
1.042613 1.6518049 -0.23983888 1 4
1.0377189 1.6314056 -0.2374015 6 4
1.053049 1.6428142 -0.23959514 15 4
1.0894716 1.6989845 -0.17657752 1 5
1.0663164 1.6508009 -0.24130133 38 4
1.0780947 1.6683964 -0.17378855 6 5
1.1073427 1.7123477 -0.10687003 1 6
1.0731555 1.6487321 -0.24154507 49 4
1.0795636 1.657944 -0.17309129 19 5
1.090415 1.6733316 -0.10467192 3 6
1.0699093 1.6318836 -0.23959514 66 4
1.0962738 1.6708239 -0.17483442 36 5
1.0962491 1.6695154 -0.10467192 12 6
1.0654702 1.613418 -0.2374015 78 4
1.0930209 1.6538817 -0.17343993 45 5
1.1028808 1.6675371 -0.10477659 36 6
1.0776933 1.6196052 -0.23886393 87 4
1.0943698 1.6434232 -0.17274268 48 5
1.1009423 1.6520427 -0.10404389 45 6
1.0537115 1.5752056 -0.50780302 50 0
1.0613096 1.5853664 -0.44045419 84 1
1.0686797 1.5951693 -0.37322241 45 2
1.0722585 1.5999088 -0.30504724 95 3
1.0637982 1.5777397 -0.50987357 49 0
1.0605729 1.5717736 -0.43775478 84 1
1.079733 1.5995655 -0.3751305 48 2
1.0703746 1.5845101 -0.30285716 85 3
1.0703851 1.5756145 -0.51039118 47 0
1.0605751 1.5600039 -0.43550527 79 1
1.0831023 1.5925399 -0.37436727 49 2
1.0814568 1.5889289 -0.30442151 76 3
1.0791508 1.5766517 -0.51194406 46 0
1.0704195 1.562723 -0.43730488 77 1
1.0842147 1.5822721 -0.37284079 44 2
1.0903485 1.5900315 -0.30536011 69 3
1.0758747 1.5601521 -0.50780302 45 0
1.0869361 1.575016 -0.4418039 68 1
1.0930778 1.5833243 -0.37398565 40 2
1.1026288 1.5959673 -0.30723733 63 3
1.0854506 1.5629224 -0.50987357 45 0
1.0943772 1.5746036 -0.44270369 66 1
1.10953 1.5958098 -0.37780184 36 2
1.1000172 1.5809518 -0.30504724 54 3
1.0964361 1.5670389 -0.51246172 42 0
1.0940058 1.5629829 -0.44045419 62 1
1.1162189 1.5935359 -0.37818345 33 2
1.106388 1.5789127 -0.30536011 48 3
1.1016271 1.5633942 -0.51246172 42 0
1.0983323 1.5575619 -0.44000429 58 1
1.1181026 1.5850126 -0.3770386 29 2
1.1221461 1.5895649 -0.30817595 40 3
1.1107059 1.5640709 -0.51401466 39 0
1.1094052 1.5616621 -0.4422538 55 1
1.1239048 1.5809035 -0.3770386 22 2
1.1371254 1.5983181 -0.31067887 22 3
1.1127863 1.5554711 -0.51246172 32 0
1.1185251 1.5623386 -0.44360352 51 1
1.137418 1.5881438 -0.37970993 16 2
1.1484518 1.6023667 -0.31224322 7 3
1.123857 1.5594132 -0.51504993 28 0
1.1285312 1.5647472 -0.44540313 45 1
1.1555909 1.6016769 -0.38390771 8 2
1.1281582 1.5539175 -0.51453227 26 0
1.133986 1.5607986 -0.44540313 35 1
1.1530946 1.586517 -0.3812364 1 2
1.1415588 1.5608851 -0.51815575 22 0
1.142608 1.5617474 -0.44675282 19 1
1.161621 1.5773132 -0.52488506 16 0
1.1630821 1.5781432 -0.45260155 6 1
1.167394 1.5730453 -0.52488506 9 0
0.98564428 1.7485229 -0.537826 17 0
1.0233313 1.6771443 -0.526438 7 0
1.0308366 1.6881194 -0.4566507 1 1
1.0241199 1.6653337 -0.52384979 11 0
1.0244656 1.6645954 -0.45125183 7 1
1.017713 1.6420448 -0.51763809 20 0
1.0251344 1.6527288 -0.44900233 20 1
1.0610087 1.7098993 -0.39115849 1 2
1.0152515 1.6253742 -0.51349699 24 0
1.0216004 1.6342685 -0.4449532 30 1
1.0482335 1.6762233 -0.38428935 5 2
1.0332875 1.651041 -0.30848882 1 3
1.0219485 1.6234552 -0.51401466 25 0
1.0231444 1.624097 -0.44315362 43 1
1.053032 1.6708928 -0.38390771 15 2
1.0390449 1.6474237 -0.30848882 4 3
1.0245043 1.6149844 -0.51246172 27 0
1.0277631 1.6188701 -0.44270369 50 1
1.0451746 1.6456627 -0.37894669 24 2
1.0532665 1.6571234 -0.31099173 19 3
1.0238925 1.6016319 -0.5093559 28 0
1.0334067 1.6152735 -0.44270369 54 1
1.0477382 1.6370434 -0.37780184 31 2
1.0622398 1.6584277 -0.31193036 39 3
1.0294768 1.5980483 -0.5093559 39 0
1.0348154 1.6051046 -0.44090408 60 1
1.045998 1.6218266 -0.3751305 32 2
1.0583817 1.6397723 -0.30911455 56 3
1.0339965 1.5928248 -0.50883824 40 0
1.0361651 1.5949463 -0.4391045 66 1
1.0559311 1.6247509 -0.37665698 37 2
1.0587136 1.6277884 -0.30755019 62 3
1.0437808 1.5956724 -0.51090884 42 0
1.0385246 1.5864279 -0.43775478 72 1
1.0615965 1.6210548 -0.37665698 41 2
1.0600585 1.6174738 -0.3062987 65 3
1.0469412 1.5889757 -0.50987357 42 0
1.0491431 1.5911101 -0.44000429 74 1
1.0572376 1.6027757 -0.37322241 42 2
1.0686809 1.6188958 -0.30723733 75 3
1.0468631 1.5774471 -0.50728536 43 0
1.054414 1.5876219 -0.44000429 77 1
1.0617388 1.5974407 -0.37284079 44 2
1.0663877 1.603828 -0.30504724 75 3
