# .PCD v0.7 - Point Cloud Data file format
VERSION 0.7
FIELDS x y z intensity ring
SIZE 4 4 4 4 2
TYPE F F F F U
COUNT 1 1 1 1 1
WIDTH 68
HEIGHT 1
VIEWPOINT 0 0 0 1 0 0 0
POINTS 68
DATA ascii
0.89259291 1.8571603 -0.2530008 49 4
0.89679486 1.8485183 -0.25226957 46 4
0.90379268 1.8473171 -0.25251329 41 4
0.91374952 1.8512713 -0.25348827 33 4
0.88099521 1.8824346 -0.25519443 31 4
0.88794285 1.8964174 -0.18320136 1 5
0.88469017 1.8741174 -0.2544632 42 4
0.88859957 1.8806961 -0.18198119 9 5
0.89293444 1.8746018 -0.25495067 47 4
0.89773107 1.8829784 -0.18250412 22 5
0.90516263 1.8816286 -0.18267845 24 5
0.91172487 1.8784578 -0.18267845 24 5
0.91301852 1.8645276 -0.18163256 21 5
0.92007917 1.8632759 -0.18180689 11 5
0.92374498 1.8551786 -0.2544632 23 4
0.92213541 1.8511363 -0.18093532 5 5
0.9302147 1.851943 -0.2544632 9 4
0.96505183 1.9055176 -0.26226285 1 4
0.83307528 1.7857245 -0.52799088 71 0
0.84428555 1.8081045 -0.4606998 54 1
0.85504735 1.8303161 -0.39268494 58 2
0.86682582 1.8538436 -0.32413223 60 3
0.83683544 1.7775619 -0.526438 73 0
0.84944701 1.8035315 -0.46024987 83 1
0.86394143 1.8326485 -0.39382979 66 2
0.86875588 1.8420254 -0.32256791 69 3
0.84438318 1.7782669 -0.52747321 77 0
0.85071713 1.7899957 -0.4575505 100 1
0.8708573 1.8315459 -0.39421138 86 2
0.87348145 1.8354149 -0.32194218 72 3
0.85423487 1.7821286 -0.52954376 77 0
0.85948861 1.7922865 -0.45890021 96 1
0.87586504 1.8248022 -0.39344814 94 2
0.88191485 1.8357615 -0.32256791 79 3
0.86381537 1.7860923 -0.53161436 73 0
0.8669005 1.7908784 -0.45935008 52 1
0.87966281 1.8164326 -0.39230329 68 2
0.88659388 1.8291169 -0.32194218 78 3
0.86241984 1.7674404 -0.5269556 67 0
0.88052893 1.8037544 -0.46339923 38 1
0.88686037 1.8151147 -0.39268494 61 2
0.89178675 1.8243924 -0.32162929 70 3
0.87083459 1.7697712 -0.52850848 62 0
0.88854241 1.8041662 -0.46429902 34 1
0.89287341 1.8121644 -0.39268494 55 2
0.9007712 1.826583 -0.32256791 65 3
0.88130218 1.7753724 -0.5310967 57 0
0.89223301 1.7958182 -0.46294931 33 1
0.90443718 1.8195848 -0.39497465 49 2
0.90362185 1.8163534 -0.32131645 53 3
0.88922447 1.7757397 -0.53213197 55 0
0.89849669 1.7926925 -0.46294931 29 1
0.91430366 1.8234363 -0.39650109 45 2
0.91438729 1.8220156 -0.32288077 46 3
0.90151453 1.7846957 -0.53575546 50 0
0.90795189 1.7966603 -0.46474889 23 1
0.91623211 1.8114742 -0.39459303 33 2
0.93201834 1.8418869 -0.32694808 25 3
0.90567386 1.7782534 -0.53472012 45 0
0.9239527 1.8125782 -0.46969783 19 1
0.93115288 1.8259158 -0.39840919 15 2
0.91364163 1.7785178 -0.53575546 37 0
0.92995793 1.8095045 -0.46969783 10 1
0.92753077 1.7909169 -0.54041415 27 0
0.93537223 1.8045169 -0.46924797 3 1
0.94450837 1.8082167 -0.54662579 13 0
0.95099139 1.8488415 -0.40413347 2 2
0.97635037 1.8525954 -0.56111974 3 0
