# .PCD v0.7 - Point Cloud Data file format
VERSION 0.7
FIELDS x y z intensity ring
SIZE 4 4 4 4 2
TYPE F F F F U
COUNT 1 1 1 1 1
WIDTH 137
HEIGHT 1
VIEWPOINT 0 0 0 1 0 0 0
POINTS 137
DATA ascii
0.91822499 1.7060411 -0.23788899 25 4
0.93637031 1.7383025 -0.17274268 1 5
0.92890877 1.7115492 -0.23910768 45 4
0.93957907 1.7297711 -0.17221974 9 5
0.94534332 1.7389338 -0.10372987 1 6
0.9351753 1.7081332 -0.23910768 56 4
0.94112605 1.7175791 -0.17134818 25 5
0.9584325 1.7477158 -0.10446258 8 6
0.94305122 1.708334 -0.23959514 70 4
0.95193297 1.7230033 -0.17221974 45 5
0.95099735 1.7198895 -0.10299717 25 6
0.9332689 1.6774426 -0.23569533 82 4
0.95570338 1.7163554 -0.17187113 46 5
0.96155638 1.7254497 -0.10352053 51 6
0.93911904 1.6741743 -0.23569533 89 4
0.95876312 1.7077967 -0.17134818 48 5
0.95847112 1.7065786 -0.10257848 51 6
0.94202524 1.6657023 -0.23496412 91 4
0.95392203 1.6853672 -0.16943076 54 5
0.96668804 1.7065301 -0.10278783 49 6
0.94881761 1.6641282 -0.23520786 93 4
0.96572441 1.6924098 -0.17047663 49 5
0.97858149 1.7135518 -0.10341586 44 6
0.95729733 1.6661365 -0.23593907 84 4
0.97729081 1.6995608 -0.1715225 42 5
0.98027319 1.7033732 -0.10299717 32 6
0.96211207 1.6610672 -0.23569533 80 4
0.9839201 1.6980349 -0.17169681 34 5
0.98591691 1.7001127 -0.10299717 15 6
0.96661413 1.6561533 -0.23545158 70 4
0.99687618 1.7066325 -0.17291699 23 5
1.0046487 1.7192518 -0.10435791 1 6
0.97742289 1.6613237 -0.23667029 60 4
0.99747658 1.6947322 -0.17204544 12 5
0.98625338 1.6630241 -0.2374015 48 4
1.0074524 1.6980944 -0.17274268 2 5
1.0002011 1.673202 -0.23935141 25 4
1.003987 1.6662996 -0.23886393 4 4
0.89927495 1.7143203 -0.30661157 1 3
0.91906244 1.7505583 -0.24276376 1 4
0.90248293 1.7059325 -0.30567297 6 3
0.91216356 1.7227782 -0.23935141 2 4
0.91493976 1.7149723 -0.30786306 19 3
0.90321201 1.6915658 -0.23545158 7 4
0.89734089 1.6714323 -0.50832063 28 0
0.90271354 1.6807357 -0.44045419 56 1
0.91374612 1.6998533 -0.3751305 33 2
0.92249346 1.7154082 -0.30848882 35 3
0.90011996 1.6633503 -0.50676769 40 0
0.90300703 1.667293 -0.43775478 64 1
0.91406035 1.6862977 -0.37284079 31 2
0.92847621 1.7121773 -0.30848882 51 3
0.90250826 1.6532574 -0.50469714 42 0
0.9091115 1.6639723 -0.43775478 70 1
0.91740948 1.6777681 -0.37169594 37 2
0.91957676 1.6810346 -0.30348289 53 3
0.91135693 1.6550153 -0.50625008 43 0
0.9095602 1.650389 -0.43505538 72 1
0.92515677 1.677994 -0.3724592 40 2
0.92191398 1.6707349 -0.3022314 57 3
0.91590315 1.6502947 -0.50573242 44 0
0.9159748 1.6490669 -0.43550527 77 1
0.92976207 1.6732008 -0.37207755 43 2
0.92936999 1.671121 -0.30285716 63 3
0.92420024 1.6523061 -0.50728536 48 0
0.91667843 1.6375184 -0.43325576 82 1
0.9314689 1.6632564 -0.37055111 44 2
0.93876946 1.6749229 -0.30410865 75 3
0.92360514 1.63713 -0.50366187 49 0
0.92622066 1.6410968 -0.43505538 88 1
0.93852389 1.661541 -0.3709327 45 2
0.94101316 1.6645926 -0.30285716 80 3
0.92931455 1.6338958 -0.50366187 50 0
0.93415701 1.6410784 -0.43595517 88 1
0.94431853 1.6582545 -0.3709327 47 2
0.94094968 1.6510001 -0.30097994 85 3
0.93568796 1.6324812 -0.50417954 48 0
0.93183708 1.6244482 -0.43235594 82 1
0.94981194 1.6551141 -0.3709327 47 2
0.94740367 1.6495836 -0.30129281 73 3
0.94496006 1.6360617 -0.50625008 47 0
0.9420948 1.6297852 -0.43460545 79 1
0.9562785 1.6536545 -0.37131432 44 2
0.95880514 1.656691 -0.30317003 59 3
0.95358187 1.6377614 -0.50780302 46 0
0.94749457 1.6266519 -0.43460545 75 1
0.9630326 1.6520032 -0.37169594 42 2
0.96827483 1.6603277 -0.30442151 55 3
0.95118737 1.6212598 -0.50366187 45 0
0.95908618 1.6334181 -0.43730488 66 1
0.97049475 1.6521859 -0.3724592 38 2
0.97706741 1.6620467 -0.30536011 48 3
0.96077484 1.6245807 -0.50573242 45 0
0.96875268 1.6367681 -0.4391045 66 1
0.98225808 1.658924 -0.37474889 36 2
0.97782761 1.6501291 -0.30379578 42 3
0.97039634 1.6278549 -0.50780302 43 0
0.96946859 1.6250086 -0.43685499 62 1
0.99307323 1.6639144 -0.37665698 30 2
0.99067277 1.6585767 -0.30598584 29 3
0.97905719 1.6294256 -0.5093559 40 0
0.97513461 1.6216149 -0.43685499 57 1
1.000899 1.6638027 -0.37742022 23 2
1.0025692 1.6652627 -0.30786306 17 3
0.98774093 1.6309556 -0.51090884 35 0
0.98887026 1.631533 -0.44045419 55 1
1.0016109 1.6519051 -0.37551212 20 2
1.0114506 1.666819 -0.30880168 6 3
0.99342847 1.6274976 -0.51090884 31 0
1.0006543 1.6380495 -0.44315362 48 1
1.0165852 1.6634754 -0.37894669 10 2
1.0011284 1.6273105 -0.51194406 29 0
1.0114751 1.6428435 -0.44540313 39 1
1.0265044 1.6666028 -0.38047317 3 2
1.0088383 1.62709 -0.51297939 24 0
1.0148625 1.6361685 -0.44450331 26 1
1.0244625 1.6401205 -0.51815575 18 0
1.0246992 1.639226 -0.44630292 8 1
1.038415 1.6496135 -0.52229685 12 0
1.0576196 1.6671858 -0.52902615 7 0
0.84149492 1.798849 -0.53213197 19 0
0.88820755 1.7394526 -0.52333212 6 0
0.88771725 1.7369932 -0.45035204 1 1
0.89073622 1.7294716 -0.52126157 12 0
0.8812744 1.7096341 -0.44405341 7 1
0.88162833 1.6972079 -0.51246172 21 0
0.89442861 1.7203794 -0.44765264 21 1
0.89505047 1.7208436 -0.3770386 1 2
0.88516456 1.6910064 -0.51142645 24 0
0.89440244 1.7072039 -0.4449532 30 1
0.91230083 1.7406286 -0.38199964 7 2
0.88835591 1.6827815 -0.50987357 25 0
0.8921634 1.6885639 -0.44090408 44 1
0.91561842 1.7322265 -0.38085476 17 2
0.89150137 1.6745542 -0.50832063 27 0
0.89255273 1.6751211 -0.43820468 50 1
0.91057783 1.7082298 -0.37627536 24 2
