# .PCD v0.7 - Point Cloud Data file format
VERSION 0.7
FIELDS x y z intensity ring
SIZE 4 4 4 4 2
TYPE F F F F U
COUNT 1 1 1 1 1
WIDTH 115
HEIGHT 1
VIEWPOINT 0 0 0 1 0 0 0
POINTS 115
DATA ascii
1.157608 1.6612452 -0.24861349 1 4
1.1588379 1.6506951 -0.24763852 5 4
1.1920127 1.6973222 -0.18145825 1 5
1.161153 1.6417786 -0.24690731 18 4
1.1634082 1.6443568 -0.17622891 2 5
1.1622696 1.6312484 -0.24593236 28 4
1.172897 1.6449487 -0.17675185 9 5
1.1679564 1.6271815 -0.24593236 40 4
1.1879311 1.6537898 -0.17814633 29 5
1.1727493 1.621281 -0.2456886 44 4
1.1890242 1.6431766 -0.17744908 46 5
1.1734446 1.6109648 -0.24471366 54 4
1.1924059 1.6357957 -0.17710046 49 5
1.1778861 1.6052586 -0.24446991 60 4
1.1851358 1.613959 -0.17518303 57 5
1.1858426 1.6043296 -0.24495739 60 4
1.1943175 1.6146176 -0.17570597 49 5
1.1929002 1.6015648 -0.24520114 45 4
1.2047085 1.6168292 -0.17640322 34 5
1.1982043 1.5976005 -0.24520114 38 4
1.2127364 1.6158012 -0.17675185 25 5
1.2025775 1.5918239 -0.24495739 29 4
1.2240939 1.6197186 -0.17762341 9 5
1.211454 1.5925678 -0.2456886 18 4
1.2245299 1.5975692 -0.24715105 6 4
1.1125847 1.6613314 -0.53575546 5 0
1.1011968 1.6430875 -0.4566507 1 1
1.1097316 1.6446271 -0.53161436 12 0
1.1080165 1.6408483 -0.45710057 6 1
1.1035185 1.6231694 -0.52592033 21 0
1.113737 1.6369708 -0.45710057 17 1
1.1278431 1.6570821 -0.38963199 1 2
1.0993527 1.6049631 -0.52126157 25 0
1.1147529 1.6268386 -0.45530099 31 1
1.1358416 1.656373 -0.39039519 4 2
1.1286181 1.6452253 -0.31599763 1 3
1.1068633 1.6044887 -0.52229685 30 0
1.110461 1.6085038 -0.45125183 41 1
1.1413286 1.6525971 -0.39039519 12 2
1.1231235 1.6250252 -0.31286895 5 3
1.1091486 1.5958569 -0.52074397 39 0
1.112731 1.599818 -0.44990212 49 1
1.1448464 1.6453806 -0.38963199 23 2
1.1366911 1.6324424 -0.31505907 16 3
1.1136047 1.5903928 -0.5202263 44 0
1.1183084 1.5959244 -0.44990212 50 1
1.1449487 1.6333361 -0.38772389 33 2
1.154861 1.6462533 -0.31850061 37 3
1.1124678 1.5770247 -0.51712048 49 0
1.1238728 1.5920107 -0.44990212 54 1
1.1427153 1.618104 -0.38505259 37 2
1.1583207 1.6389855 -0.31787488 56 3
1.1134899 1.5668325 -0.51504993 51 0
1.1305522 1.5896664 -0.45035204 62 1
1.1438044 1.6077061 -0.38352609 50 2
1.153723 1.6204499 -0.31505907 67 3
1.1180998 1.5611705 -0.51453227 53 0
1.1304191 1.5777899 -0.44810253 68 1
1.1519771 1.6066946 -0.38428935 64 2
1.1492906 1.6017652 -0.31224322 67 3
1.1258037 1.5603912 -0.51556754 59 0
1.130491 1.5657361 -0.44585302 72 1
1.1552796 1.5994802 -0.38352609 70 2
1.1595033 1.6041478 -0.31349471 75 3
1.1369221 1.5642656 -0.51815575 64 0
1.1368227 1.563555 -0.44630292 74 1
1.1585454 1.5922629 -0.38276285 100 2
1.1694661 1.6066825 -0.31474617 87 3
1.1363981 1.5526925 -0.51556754 65 0
1.1480315 1.5674376 -0.44855243 84 1
1.1498948 1.5694087 -0.37818345 100 2
1.1633872 1.5866598 -0.31161749 81 3
1.1409351 1.5469619 -0.51504993 64 0
1.1558095 1.5665573 -0.44945225 82 1
1.1661347 1.5793977 -0.38161799 100 2
1.1644988 1.5760304 -0.310366 80 3
1.1509361 1.5491731 -0.51712048 62 0
1.1557302 1.5544907 -0.44720271 79 1
1.1786704 1.5847698 -0.38390771 61 2
1.1711729 1.5735403 -0.31067887 73 3
1.160967 1.5513325 -0.51919103 60 0
1.1597114 1.5490894 -0.44675282 74 1
1.1900811 1.5885015 -0.3858158 43 2
1.1846776 1.5807126 -0.31286895 67 3
1.1695933 1.5521023 -0.52074397 56 0
1.1686306 1.5497004 -0.44810253 66 1
1.1870664 1.573575 -0.3831445 37 2
1.196138 1.5844512 -0.31443331 59 3
1.1703311 1.5418559 -0.51867342 55 0
1.1831913 1.5582323 -0.45170176 60 1
1.1961143 1.5741121 -0.38428935 31 2
1.2001908 1.5789032 -0.31412044 51 3
1.1733596 1.5346915 -0.51763809 47 0
1.18771 1.5523379 -0.45125183 56 1
1.2099549 1.58084 -0.38696066 25 2
1.2023659 1.5697892 -0.31318185 43 3
1.1893184 1.5443614 -0.52229685 43 0
1.1907427 1.5450952 -0.45035204 54 1
1.215466 1.5766065 -0.38696066 20 2
1.2174916 1.5780945 -0.3156848 23 3
1.1982538 1.5447801 -0.52384979 40 0
1.200909 1.5470864 -0.45215163 49 1
1.2317986 1.5863101 -0.39039519 10 2
1.2229933 1.5738347 -0.3156848 4 3
1.2155328 1.5558109 -0.52902615 31 0
1.2183042 1.5582381 -0.4566507 37 1
1.2324908 1.5758146 -0.38886875 2 2
1.2149826 1.543968 -0.526438 23 0
1.2321759 1.5646926 -0.4598 23 1
1.2251649 1.5457729 -0.52850848 18 0
1.2497399 1.5756503 -0.46429902 6 1
1.2438107 1.5580949 -0.53420252 10 0
1.2831357 1.5958997 -0.5486964 3 0
1.1495523 1.7295609 -0.55646098 2 0
1.1299915 1.6988438 -0.47104755 1 1
