# .PCD v0.7 - Point Cloud Data file format
VERSION 0.7
FIELDS x y z intensity ring
SIZE 4 4 4 4 2
TYPE F F F F U
COUNT 1 1 1 1 1
WIDTH 135
HEIGHT 1
VIEWPOINT 0 0 0 1 0 0 0
POINTS 135
DATA ascii
1.091581 1.6318169 -0.24105757 51 4
1.104744 1.6508709 -0.17378855 18 5
1.1213586 1.6744326 -0.10561397 2 6
1.1017079 1.6345813 -0.24203253 66 4
1.1174724 1.6567211 -0.17483442 36 5
1.1283127 1.6721644 -0.10571864 10 6
1.1018313 1.6225142 -0.24081384 78 4
1.1142892 1.6396277 -0.17343993 44 5
1.1254497 1.6548052 -0.10488127 27 6
1.101043 1.6086365 -0.23935141 84 4
1.1290113 1.6488792 -0.17483442 48 5
1.1357337 1.6574575 -0.10529996 48 6
1.1018653 1.5984386 -0.23837645 87 4
1.1268409 1.6334479 -0.17361423 53 5
1.1332834 1.6421751 -0.10456725 47 6
1.1029091 1.5880605 -0.2374015 88 4
1.1265664 1.6215217 -0.17274268 51 5
1.1390091 1.6382089 -0.10456725 37 6
1.1175489 1.5972136 -0.23935141 84 4
1.1333627 1.6192113 -0.17291699 43 5
1.1481571 1.6391315 -0.10488127 27 6
1.1254053 1.5965476 -0.23983888 76 4
1.1461803 1.6248152 -0.17396286 33 5
1.1469628 1.6253222 -0.10425323 14 6
1.1309719 1.5926092 -0.23983888 70 4
1.1564621 1.6273004 -0.17466012 25 5
1.1656455 1.639011 -0.10540463 1 6
1.1344906 1.585225 -0.23935141 55 4
1.1635783 1.6246706 -0.17483442 13 5
1.1481432 1.5925272 -0.24105757 46 4
1.1832318 1.6399879 -0.17692617 1 5
1.1534183 1.5887107 -0.24105757 19 4
1.1703957 1.6009024 -0.24349497 3 4
1.0762546 1.6585553 -0.24276376 1 4
1.0842108 1.658111 -0.24325122 5 4
1.0823473 1.6427126 -0.24154507 15 4
1.1195073 1.6984682 -0.17797202 1 5
1.0880743 1.6389247 -0.24154507 36 4
1.0967704 1.6513976 -0.17343993 4 5
1.1354065 1.7082777 -0.10749806 1 6
1.0944536 1.6373476 -0.31193036 62 3
1.0615945 1.5792234 -0.50987357 42 0
1.0725187 1.5942721 -0.44360352 68 1
1.0873638 1.6157303 -0.37856507 39 2
1.0836107 1.6089405 -0.30723733 63 3
1.0717095 1.5817193 -0.51194406 42 0
1.07261 1.5824535 -0.44135401 72 1
1.0877677 1.6036106 -0.37665698 44 2
1.0883907 1.6033241 -0.30692446 72 3
1.0728679 1.5715864 -0.50987357 42 0
1.0773038 1.5769022 -0.44090408 77 1
1.0966824 1.6046662 -0.37780184 45 2
1.0984417 1.6060368 -0.30817595 79 3
1.0838207 1.5757906 -0.51246172 43 0
1.079213 1.5685049 -0.43955439 86 1
1.0933695 1.5878924 -0.37474889 46 2
1.0981584 1.5942515 -0.30661157 80 3
1.0835398 1.5642477 -0.50987357 49 0
1.0880117 1.569533 -0.44090408 81 1
1.0963912 1.5810317 -0.37398565 47 2
1.1104738 1.6001461 -0.30848882 83 3
1.0878882 1.5588714 -0.5093559 47 0
1.095716 1.5689209 -0.4418039 81 1
1.1052769 1.5820228 -0.3751305 48 2
1.1036021 1.5784515 -0.30504724 78 3
1.0988783 1.5629663 -0.51194406 46 0
1.094458 1.5555235 -0.4391045 79 1
1.1175722 1.587788 -0.37742022 43 2
1.1102431 1.5762043 -0.30536011 68 3
1.1068337 1.5620806 -0.51297939 43 0
1.0987531 1.5501045 -0.43865457 72 1
1.1267923 1.5884848 -0.37856507 40 2
1.1228731 1.5817894 -0.30723733 61 3
1.1167688 1.5644972 -0.51504993 43 0
1.1134895 1.5587524 -0.4422538 62 1
1.1323301 1.584542 -0.37856507 35 2
1.1318353 1.5826803 -0.30817595 54 3
1.1191106 1.5556891 -0.51349699 41 0
1.1257538 1.5643462 -0.4449532 62 1
1.1369823 1.5787883 -0.37818345 32 2
1.1434031 1.5865344 -0.30974028 48 3
1.1194607 1.5459064 -0.51142645 40 0
1.1320784 1.5621828 -0.44540313 58 1
1.145394 1.5799768 -0.37932828 26 2
1.1483814 1.5829347 -0.30974028 37 3
1.1339579 1.5544755 -0.51556754 32 0
1.1338068 1.5536972 -0.44405341 54 1
1.1578488 1.5854821 -0.38161799 21 2
1.1582857 1.5854976 -0.31099173 19 3
1.142538 1.5553771 -0.51712048 30 0
1.1426857 1.5544407 -0.44540313 51 1
1.1700792 1.5911233 -0.38390771 16 2
1.1673253 1.586218 -0.31193036 6 3
1.1537062 1.5591438 -0.51970869 28 0
1.157382 1.5629716 -0.44900233 43 1
1.1744579 1.5854514 -0.38352609 7 2
1.153368 1.5473634 -0.51712048 25 0
1.1663266 1.5636079 -0.45035204 33 1
1.2199038 1.6348411 -0.39650109 1 2
1.1692019 1.5572313 -0.52177918 20 0
1.1776302 1.5673171 -0.45260155 16 1
1.1874493 1.5700892 -0.52747321 14 0
1.1842706 1.5647506 -0.45305148 3 1
1.2049052 1.5810921 -0.53264964 8 0
1.0745513 1.7249973 -0.54455531 3 0
1.0487248 1.6705147 -0.52850848 7 0
1.0501864 1.6715488 -0.45575085 1 1
1.0504186 1.6603134 -0.526438 13 0
1.0393358 1.6415292 -0.44855243 7 1
1.047147 1.6417935 -0.52177918 21 0
1.0461074 1.6395341 -0.44900233 21 1
1.0555327 1.6530317 -0.3812364 1 2
1.042426 1.6218771 -0.51660281 24 0
1.0489475 1.6307719 -0.44765264 30 1
1.0772315 1.6741022 -0.38696066 6 2
1.0759149 1.6707742 -0.31474617 1 3
1.0446486 1.6135467 -0.51504993 25 0
1.0575289 1.6321905 -0.44900233 40 1
1.0763698 1.6606362 -0.38467094 15 2
1.0620999 1.6373664 -0.30911455 4 3
1.0489388 1.6084552 -0.51453227 32 0
1.0544149 1.6156194 -0.44540313 50 1
1.0765047 1.6488378 -0.38276285 25 2
1.0729259 1.6421038 -0.31067887 18 3
1.0534856 1.6031697 -0.51401466 36 0
1.057906 1.6086727 -0.44450331 54 1
1.0854905 1.6499908 -0.38390771 33 2
1.0873411 1.651548 -0.31318185 41 3
1.0580084 1.597872 -0.51349699 37 0
1.060286 1.6000966 -0.44315362 62 1
1.0728025 1.6183735 -0.37742022 33 2
1.0898238 1.6428039 -0.31224322 56 3
1.0571471 1.5845268 -0.51039118 39 0
1.0669467 1.5980066 -0.44360352 66 1
1.0795361 1.6162512 -0.37780184 39 2
