# .PCD v0.7 - Point Cloud Data file format
VERSION 0.7
FIELDS x y z intensity ring
SIZE 4 4 4 4 2
TYPE F F F F U
COUNT 1 1 1 1 1
WIDTH 89
HEIGHT 1
VIEWPOINT 0 0 0 1 0 0 0
POINTS 89
DATA ascii
0.81482464 1.7402557 -0.23593907 78 4
0.8446396 1.8022944 -0.17413718 48 5
0.83938843 1.7902764 -0.10362521 22 6
0.82259077 1.7409903 -0.23642655 84 4
0.83218694 1.7597097 -0.17030232 48 5
0.84594405 1.7871879 -0.10362521 33 6
0.83122551 1.7434839 -0.23715776 89 4
0.83832407 1.7567943 -0.17030232 51 5
0.85303861 1.7860261 -0.10372987 43 6
0.8309806 1.7281951 -0.23545158 91 4
0.84068877 1.7468237 -0.16960508 52 5
0.85028952 1.7651935 -0.10268316 31 6
0.83180964 1.7145675 -0.23398916 84 4
0.85865682 1.7691199 -0.17204544 46 5
0.85962898 1.7695503 -0.10310185 25 6
0.84389812 1.7241346 -0.23569533 80 4
0.86833149 1.7732697 -0.17274268 38 5
0.86316329 1.7611587 -0.10278783 12 6
0.85166961 1.7247379 -0.23618281 72 4
0.86392701 1.7487919 -0.17065094 27 5
0.87196183 1.7635059 -0.10310185 2 6
0.86033994 1.7270854 -0.23691402 63 4
0.87535793 1.7564651 -0.17169681 16 5
0.86903769 1.7293924 -0.23764524 52 4
0.88953841 1.7694193 -0.17326561 3 5
0.87327373 1.7228074 -0.23715776 29 4
0.88380015 1.7285861 -0.23837645 6 4
0.91504043 1.7079748 -0.51919103 13 0
0.95126748 1.7741067 -0.46474889 3 1
0.93477082 1.730265 -0.5269556 7 0
0.80070579 1.7155558 -0.50728536 43 0
0.79841286 1.709084 -0.43550527 74 1
0.80964661 1.7323447 -0.37169594 42 2
0.81274408 1.7373888 -0.30379578 69 3
0.8012237 1.7003769 -0.50366187 44 0
0.80520362 1.70805 -0.43595517 86 1
0.81347686 1.7240394 -0.37055111 44 2
0.81910604 1.7343985 -0.30379578 79 3
0.80715472 1.6975696 -0.50366187 49 0
0.80978328 1.7015682 -0.43505538 86 1
0.82033437 1.7229617 -0.3709327 45 2
0.81835651 1.717263 -0.30129281 78 3
0.81277925 1.6948838 -0.50366187 51 0
0.8103624 1.6883321 -0.43235594 88 1
0.82689291 1.7220018 -0.37131432 48 2
0.82147914 1.7091985 -0.30035421 80 3
0.82344228 1.7026137 -0.50676769 49 0
0.81935263 1.692652 -0.43415555 84 1
0.83088779 1.7157161 -0.37055111 49 2
0.83403587 1.7206855 -0.30285716 80 3
0.82853305 1.6979929 -0.50625008 47 0
0.82782209 1.6950345 -0.43550527 75 1
0.83428657 1.7075132 -0.36940622 46 2
0.84350806 1.7248621 -0.30410865 72 3
0.8267765 1.6794914 -0.50159132 45 0
0.83287221 1.6903868 -0.43505538 72 1
0.84631753 1.7169173 -0.37207755 43 2
0.85127127 1.7254503 -0.30473438 67 3
0.83778918 1.6869766 -0.50469714 44 0
0.84310508 1.6961942 -0.43730488 66 1
0.85492766 1.7192265 -0.37322241 39 2
0.85552925 1.7189312 -0.30410865 63 3
0.84713364 1.690951 -0.50676769 43 0
0.84552729 1.6862725 -0.43550527 66 1
0.86268389 1.7197416 -0.37398565 36 2
0.86063832 1.7141687 -0.30379578 53 3
0.85564548 1.693156 -0.50832063 42 0
0.85492617 1.6902668 -0.43730488 60 1
0.87665981 1.7324854 -0.37742022 30 2
0.87286371 1.72349 -0.30598584 46 3
0.86505949 1.6970437 -0.51039118 39 0
0.86347842 1.6924796 -0.43865457 57 1
0.87734729 1.7189226 -0.3751305 24 2
0.87977362 1.7221916 -0.3062987 34 3
0.86479497 1.6819869 -0.50676769 35 0
0.87265122 1.6965389 -0.44045419 55 1
0.88783485 1.7245774 -0.3770386 19 2
0.89452416 1.7368263 -0.30942741 14 3
0.87659085 1.6911161 -0.51039118 32 0
0.88215727 1.7004018 -0.4422538 46 1
0.8989749 1.7320791 -0.37932828 9 2
0.9033128 1.7389523 -0.310366 1 3
0.8869642 1.6966057 -0.51297939 28 0
0.88718438 1.6955854 -0.4418039 39 1
0.91047883 1.7393665 -0.38161799 2 2
0.89828658 1.7037528 -0.51608521 25 0
0.89764547 1.7010955 -0.44405341 24 1
0.90876359 1.7091353 -0.51867342 20 0
0.90723872 1.7048335 -0.44585302 7 1
